-0.011098607058684908,-0.011098607058684908,-0.011098607058684908,-0.011098607058684908,-0.011098607058684908,-0.011098607058684908,-0.011098607058684908,-0.011098607058684908,-0.011098607058684908,-0.011098607058684908,-0.011098607058684908,-0.011098607058684908,-0.011098607058684908,-0.011098607058684908,-0.011098607058684908,-0.011098607058684908,-0.011098607058684908,-0.011098607058684908,-0.12740008801737832,-0.2437015689760717,-0.319048228187227,-0.2338686721958208,-0.13069359568666228,-0.05923496472462629,-0.02714052262524524,-0.010228783270910476,-0.0005483570606012269,0.0057719449739797365,0.010550072363338565,0.014345343003028288,0.01747762554020304,0.01984778481482832,0.0215524787332063,0.02277947242484605,0.023698370613979787,0.02443764474445102,0.025112494126146887,0.025820526960595128,0.026551218997886403,0.027007332189120492,0.02728569009892942,0.027405754919159902,0.027559449597408747,0.027745578939665075,0.028034362284057143,0.02836955370228688,0.02869130615704128,0.028937972419188523,0.029151918536615588,0.02927009474231457,0.02940271543646887,0.029490546136293656,0.029595335235275085,0.02959216044238499,0.02964377386628427,0.02975313471888847,0.029928568107414733,0.030088386659492542,0.03021968331140204,0.030370695847896072,0.030555428854008655,0.030771141501526208,0.030971434470662078,0.03113390184854362,0.03139508208414998,0.03170364075340123,0.03202190945612903,0.03216653381432739,0.032271054332668934,0.03231952592447232,0.03240443858699229,0.032454319817988006,0.03254012822542605,0.03271733314930168,0.03293430072103803,0.03315496543945185,0.03328851247910565,0.03339210860338891,0.03352796183530775,0.03369434586579691,0.03383261088430261,0.03391204534372504,0.03394366223701505,0.03404831956631419,0.03413334203872784,0.03425890624802497,0.034307902155193054,0.034324851209987996,0.034326495773344894,0.0343227044937023,0.034406132893494465,0.03452719726025778,0.03467217534119363,0.03481262263139122,0.0348725622213505,0.03487263292318645,0.03478572993445024,0.0346955890847171,0.03459023060104221,0.03448290341782381,0.03438221564134137,0.034335530216529006,0.03424905180537749,0.03413857399180391,0.03410091614662229,0.03427464642882172,0.034553304348082625,0.03472244030860509,0.03476923623405349,0.03503359381710162,0.03559317384145458,0.036278855309575114,0.03664663951250358,0.03686576406252918,0.03711172247187933,0.037621755458827164,0.03812279795181139,0.03839195735870645,0.038353514718699626,0.03826015769673831,0.03833310863845232,0.03854059923583885,0.03878719975451719,0.03905804701818816,0.039359099812881305,0.03961626023173702,0.03978584981929843,0.03997736218961934,0.04017722573834917,0.04033830259170481,0.04045367788187528,0.04060952225209523,0.040848514449434395,0.04111570730231217,0.04141704350624603,0.041602964264750866,0.04178117222372091,0.041783885908799744
-0.011098607058684908,-0.011098607058684908,-0.011098607058684908,-0.011098607058684908,-0.011098607058684908,-0.011098607058684908,-0.011098607058684908,-0.011098607058684908,-0.011098607058684908,-0.011098607058684908,-0.011098607058684908,-0.011098607058684908,-0.011098607058684908,-0.011098607058684908,-0.011098607058684908,-0.011098607058684908,-0.011098607058684908,0.030134570609321523,-0.08616691034937188,-0.20246839130806527,-0.3127397316944054,-0.2251641355775681,-0.1214867651689271,-0.0564160420585786,-0.027028799779133764,-0.010741256592696499,-0.0010749678493139217,0.005447825081954681,0.010190805938572661,0.013928738010039287,0.017010065849546296,0.019344234693158813,0.02100788309039662,0.02222132494113705,0.023162503424090868,0.023894474144637346,0.024615139995794365,0.02538391037583215,0.02615976493748021,0.026629534992496887,0.026929145165161716,0.02714199475834833,0.02735851667255515,0.027592221456510253,0.027908344525124765,0.02822640742267014,0.02853902390011624,0.028833097153597692,0.029080691993710682,0.02916186562012823,0.02912792928249385,0.02910592308037093,0.029139539570546377,0.02915748406310759,0.02924549377066029,0.029386294248109728,0.029560723576943906,0.029663351340512397,0.02984668498384213,0.030041137334566217,0.030327389092925608,0.030546959027175403,0.030734591494899502,0.030821108935821184,0.031026335653095788,0.03129854279960464,0.03158451669769746,0.03165070951006859,0.03170705799013885,0.03180808977486584,0.03196030348094503,0.03209769852945236,0.03218423422172455,0.03236130379011716,0.032425317070325844,0.03251896727703229,0.03259764267749391,0.03274400532248827,0.03294392037287355,0.033154282732831206,0.03337460111377191,0.03355944040532299,0.033667614798422625,0.033820613526479026,0.03395155098900746,0.03412052692317834,0.034236851524136316,0.03424122111969929,0.03420564218631374,0.03413573717306256,0.034194324089754896,0.03428024621656175,0.03440727878053076,0.03445494372023574,0.03447699486567016,0.034470154131087484,0.03446712318690518,0.034488717335119906,0.03451742306018675,0.03451273528843827,0.03448133389685152,0.03442297860586621,0.03430526004469911,0.03413777973846121,0.03401818611665764,0.034025488477037936,0.034104668692865645,0.03426149639261574,0.03449346350985189,0.03493415628500189,0.03551877378859877,0.03609692101394558,0.036498788889042705,0.03669293159787821,0.03687990219530365,0.037255805464944926,0.03768342097078026,0.03803844741192835,0.03815533411406551,0.03828240488091354,0.03847417029010391,0.03867623022729737,0.03883417064918806,0.03902749243513691,0.039271220124568886,0.03947174547122712,0.03964140828044883,0.03980595282600845,0.039992548727993696,0.04011150093020928,0.04022303100306216,0.04032568096000479,0.040488031676930214,0.040726787830273205,0.041053510612320265,0.04134183035362757,0.04159225075926268,0.041606360904758166
-0.011098607058684908,-0.011098607058684908,-0.011098607058684908,-0.011098607058684908,-0.011098607058684908,-0.011098607058684908,-0.011098607058684908,-0.011098607058684908,-0.011098607058684908,-0.011098607058684908,-0.011098607058684908,-0.011098607058684908,-0.011098607058684908,-0.011098607058684908,-0.011098607058684908,-0.011098607058684908,-0.011098607058684908,0.05854278333655712,-0.057758697622136285,-0.17406017858082964,-0.3040155245292441,-0.21301217259891111,-0.10749911161324699,-0.05003361700284893,-0.02294870826667241,-0.007679425935481951,0.0014780641297739696,0.007474672318243475,0.011924357121562626,0.01553794192318116,0.018547720999601405,0.020963017214128934,0.02268822811748306,0.023818679009698432,0.024561035661816374,0.02513671042111937,0.02572038615639189,0.026347679164649244,0.0269569726262948,0.027349401744733107,0.027595716989497816,0.02780645237857478,0.028036412885341703,0.028277628097807157,0.028576808177427627,0.028893360824004892,0.02920691524039935,0.029528158870401017,0.029756243905712108,0.02987731734523208,0.029831911617744573,0.029778117354642607,0.029736646408566575,0.02972369503120403,0.02976039812831923,0.02989989672391636,0.03008559466622447,0.030239999460345196,0.030448570553356247,0.03069475532411435,0.03101682891724233,0.031271334489769945,0.031445547354244395,0.031554081245447,0.031762210106246705,0.03203922649164205,0.03234338346723465,0.03246766157438342,0.03253849512948118,0.03262097669066874,0.03269258841215371,0.03276406985915923,0.032833072718497266,0.03301251970519601,0.03310393222877958,0.033177907476619056,0.03326962970418189,0.03342247069089271,0.03363295070128062,0.033853664896803276,0.03412713034960832,0.03438624855207791,0.0345428621896707,0.03467834362228411,0.03472944053589487,0.03484666198253709,0.034951043976317965,0.03495207652607459,0.03488371828256613,0.034784925385827586,0.0348184816774048,0.03486985702073285,0.03494074488802075,0.03496738013638012,0.03500705525279122,0.03502374967040951,0.03501786098364236,0.035026830026885024,0.03508628275334037,0.035183435420662615,0.035218558435534245,0.03522615554637003,0.03523836954717041,0.03530605562471019,0.035378929726284016,0.03540732003123224,0.03540335867074993,0.03552403695044289,0.03582808818921897,0.03628383314423202,0.036712793987144235,0.03708350096307313,0.03739019280493053,0.03758303360350938,0.03774358222323333,0.03801289876394997,0.03835160639355206,0.0386350966987344,0.038724369903321454,0.03887533780938261,0.03908972891881544,0.039327138536649424,0.03945834471111388,0.039620455587763226,0.039821919219311816,0.04004985907231919,0.04031665552459103,0.04053853254615915,0.040703364269039824,0.04078703037628354,0.04091472589406752,0.04106236723831087,0.04128651008057964,0.0415516609510195,0.0418867174325088,0.04217621244976863,0.042448889675665465,0.04251662754675202
-0.011098607058684908,-0.011098607058684908,-0.011098607058684908,-0.011098607058684908,-0.011098607058684908,-0.011098607058684908,-0.011098607058684908,-0.011098607058684908,-0.011098607058684908,-0.011098607058684908,-0.011098607058684908,-0.011098607058684908,-0.011098607058684908,-0.011098607058684908,-0.011098607058684908,-0.011098607058684908,-0.011098607058684908,0.09977596100456354,0.007080236451821403,-0.10922124450687198,-0.27477343999537607,-0.2056078106461361,-0.09961909348107167,-0.04790217239429223,-0.022869759955280143,-0.008235157528638903,0.0008598071177981922,0.006962342720757992,0.011320364651512494,0.014777645780498491,0.017597374722761815,0.01997767040013309,0.02183214505351271,0.023107801142347607,0.023955517520154786,0.024608524636024247,0.02532739285186484,0.025974955102341123,0.02648740228359958,0.026813023503081016,0.02712779390630751,0.02749444948982826,0.027829248668756378,0.02816936663679498,0.028553465444822918,0.028915221759185112,0.029223686806016416,0.02949154929893661,0.029648279753744247,0.029717365558380632,0.029637182835405788,0.02960325033261951,0.029546727779893513,0.02957476349811958,0.029621101500938385,0.02977495175810521,0.029959530505019885,0.030130458699796116,0.030277120108662618,0.030439330025698444,0.03061503140501018,0.03078243859966814,0.03089314616370363,0.03102749522813729,0.031232763041111673,0.031483073188927395,0.03179476960058334,0.032043906796092175,0.032226449967790644,0.032361121671648264,0.032454009469828946,0.0325342337824275,0.032562941705363314,0.032672081699788365,0.03277727406481358,0.032889784942021286,0.03294125391901672,0.03302361590694014,0.033164096354719216,0.03339804109794072,0.033637499207066754,0.033900117389752196,0.034110240818798016,0.03429987532420041,0.03441983852687915,0.03457894123336484,0.034798837925266723,0.034916189895333426,0.03486410198304902,0.03473377370527642,0.03470138493309107,0.0347398253467002,0.03474706629210233,0.03470068941050388,0.034732368501752695,0.034841475784097097,0.03494774348492617,0.03505085374534975,0.0351389086450952,0.03522085578761053,0.035221346277923976,0.03523889922898502,0.03536544999730213,0.03556673749816666,0.03576101184189619,0.035782699208281914,0.03569537320713941,0.03564652562535944,0.03586370252095611,0.036228328899896606,0.03663651430460929,0.03695269425900675,0.03724355294643275,0.03749419858453013,0.03770885991491345,0.03795396075514284,0.03824156632181299,0.038544582724706955,0.03870200077797932,0.03889318568031298,0.039108339315583246,0.039377736464984665,0.03948558734108875,0.0395145388443118,0.03960243984220603,0.03978542844507946,0.04009326323923772,0.040341479836569584,0.04050259008726209,0.04058962651912977,0.04072143544843749,0.04085962611026842,0.04103582502444963,0.04122351529640693,0.041474579655337615,0.041727718352383605,0.041940631544801335,0.042053000280371365
-0.011098607058684908,-0.011098607058684908,-0.011098607058684908,-0.011098607058684908,-0.011098607058684908,-0.011098607058684908,-0.011098607058684908,-0.011098607058684908,-0.011098607058684908,-0.011098607058684908,-0.011098607058684908,-0.011098607058684908,-0.011098607058684908,-0.011098607058684908,-0.011098607058684908,-0.011098607058684908,-0.011098607058684908,0.08008924337548744,-0.012606481177254714,-0.1284873366900523,-0.26708676908666557,-0.19502145619329037,-0.08773895616751663,-0.04217399910385627,-0.01910837477175093,-0.005505819540189631,0.003036926852558694,0.008722626964349224,0.012896503094142605,0.016270766870551116,0.019049586926658993,0.021413964825921908,0.0232755916412942,0.024529129698229235,0.025300205099608463,0.025854669491874364,0.026420548355609405,0.02698798870887735,0.02738383113093923,0.027637974809338037,0.02784544826206225,0.02819228256062648,0.02859357827048998,0.028999501912206876,0.029384281784755287,0.029710460948420996,0.02999459748750328,0.03023167868487928,0.030343235482372152,0.0303966708011579,0.03037009439024682,0.030449369137929925,0.030520602661910767,0.030597733899127857,0.030617935290814857,0.03070096005313594,0.030845599553339174,0.03103537209149856,0.031184052167492742,0.031317207415121916,0.031377864184023115,0.031421337119184205,0.03149690247874203,0.03163197953229375,0.03191305673878645,0.032198998717793276,0.03255775401810979,0.032855860128457,0.03308128260841447,0.03322121088735045,0.03328260739245035,0.03331621204050249,0.033382254873302535,0.03351692962785493,0.033700205028965015,0.03384051966314653,0.03387131857123737,0.03388406664698667,0.03395435739814297,0.0341335026823034,0.03429943982775978,0.03446547954887257,0.03462157993418251,0.03480701931805985,0.03493977191922755,0.03506866155586815,0.03523702740748693,0.03533370241885321,0.03529669602380278,0.035225003820091486,0.03526067078972419,0.035354188994704445,0.03534716999077632,0.03532174015809154,0.035333027591065894,0.035459871349621475,0.03549478343509681,0.035555417608534014,0.035610996669901515,0.03567206959063174,0.03573529437409632,0.035856688104531055,0.03611152369768688,0.03635918208394411,0.036562780221029864,0.03664339950671662,0.036681595509756665,0.03671056425956242,0.03692456534316853,0.037221942463761766,0.037518338506240076,0.03774265966466295,0.03796680493627113,0.03827733593380297,0.03857655776970529,0.038819034400445325,0.03897190514491323,0.03907370947081582,0.039100878665048584,0.03923163240020999,0.0394725227647355,0.03983887299448191,0.040084193311198085,0.04018746835660401,0.0402684738743186,0.04045316908388505,0.0407413753950547,0.0410081095030159,0.04117421897836234,0.04130512518765721,0.041466970536380196,0.04165344340271631,0.04186602608417416,0.041997487048748096,0.04214235302590077,0.04227190399020098,0.04245329101741245,0.04261227315766692
-0.011098607058684908,-0.011098607058684908,-0.011098607058684908,-0.011098607058684908,-0.011098607058684908,-0.011098607058684908,-0.011098607058684908,-0.011098607058684908,-0.011098607058684908,-0.011098607058684908,-0.011098607058684908,-0.011098607058684908,-0.011098607058684908,-0.011098607058684908,-0.011098607058684908,-0.011098607058684908,-0.011098607058684908,0.09291420831625825,0.00021848376351610993,-0.11051314296191783,-0.25774272384135816,-0.18451729648304566,-0.08194210488974153,-0.04062509092420143,-0.01904934075882413,-0.006055033774285955,0.002409354214689897,0.008206086546865145,0.012258800822017711,0.015465929745994023,0.018162391470003907,0.02058706130174571,0.02261116991068326,0.02405851326814656,0.024953015330270084,0.025535480480113792,0.026077812273212733,0.02664063181386621,0.02709236567512624,0.02741394679176164,0.027683082960677594,0.028060116717085755,0.028517161318501023,0.02894383102729718,0.029328017650610723,0.02964080505255767,0.02994522004149198,0.030163597976860284,0.030217505131358124,0.03015738045515001,0.030108886669808627,0.030254433166909574,0.030502263623345252,0.03067429834087394,0.030739396634077282,0.030766692258101372,0.030858395836783535,0.03101257168805195,0.031161065918062683,0.0312901623831753,0.03133917930003896,0.03132969477845965,0.031366662130739374,0.03146703681004847,0.03170120525033528,0.03193045484377888,0.03222713754158865,0.032537315106041985,0.032830294521554705,0.0330428721773144,0.03316042448840214,0.033226307293743165,0.03328269756794374,0.033399242295806035,0.03354623291007999,0.03367799861954901,0.03367827096724624,0.0336522238785467,0.03368995767781923,0.03381811705598054,0.033934490985908845,0.03401281066783482,0.034137223453468285,0.034298346004457844,0.03449375665938651,0.03467485494830965,0.03491548139905353,0.03506822601588227,0.03506523733404564,0.03504692994956396,0.03510955159497772,0.035275196921898865,0.035315523296816365,0.035342959461848115,0.035350148043281945,0.035455335672725845,0.03545893344184446,0.035457498318926556,0.03543724532916923,0.035463852935148525,0.035594216982592235,0.03581328013218774,0.03605103058036043,0.03613790803381031,0.036165198051995806,0.03621034944964799,0.03637674420214562,0.03660501585957837,0.03688336892624105,0.037158259955749,0.037349181040393496,0.03753555674227683,0.03775587428131318,0.038085965756223666,0.03843221657780336,0.038692666377405247,0.03885176913719658,0.03891022628538772,0.03894687987145043,0.039064020719187735,0.03929566897652238,0.039634267324887555,0.03992405394067253,0.04010901093214687,0.04021272603922964,0.04038737959264418,0.040581539466130315,0.0407949768054348,0.04091453598797143,0.041076823571451274,0.041301385093400075,0.041509942419326505,0.04168442399257071,0.04176056849800975,0.0418660251990474,0.041995197723582046,0.04215141040968847,0.04230157928967222
-0.011098607058684908,-0.011098607058684908,-0.011098607058684908,-0.011098607058684908,-0.011098607058684908,-0.011098607058684908,-0.011098607058684908,-0.011098607058684908,-0.011098607058684908,-0.011098607058684908,-0.011098607058684908,-0.011098607058684908,-0.011098607058684908,-0.011098607058684908,-0.011098607058684908,-0.011098607058684908,-0.011098607058684908,0.09291420831625825,-0.02338727264243515,-0.12759621952391098,-0.27189972003411295,-0.17327716006528895,-0.07590927927312101,-0.03655259116980058,-0.016023457090676905,-0.003749609022396218,0.004361300736420535,0.009947849454628998,0.013868919749878118,0.016935117615012648,0.019557999853133747,0.0219322959645672,0.02389767561623553,0.025296069717364988,0.026089432669027406,0.026531328505848942,0.026843151696524858,0.027299689838504924,0.027767409283977414,0.028169043368575362,0.028481528056012662,0.028842358215024854,0.029317305676419735,0.029757074944346,0.03009399598593115,0.030374013458988037,0.030673672613025955,0.030911473461216858,0.03098241285429086,0.030962522776678644,0.030956733704730392,0.031116151388997274,0.031332161162782445,0.031454247248154044,0.03148689278185929,0.031485981770762145,0.03156873523509171,0.031703903170002726,0.03190505163069142,0.03206841006233806,0.03218266553192761,0.03218922553138112,0.03226689469551565,0.03235000283530756,0.032530573728356174,0.032684973886503495,0.03287450449135373,0.033081760949701014,0.033323385323318334,0.033530806622960124,0.03366491866494833,0.03373723497089286,0.03385845584449986,0.033992178429103306,0.03414286262939443,0.03427115275315245,0.03437644328992047,0.034442135547649785,0.034500808028483335,0.034558252922434286,0.034627834985807106,0.03466838264982932,0.03475804934842458,0.0348945451434768,0.035080350774475064,0.03528812080487358,0.035484059139347546,0.03560964126004668,0.03559041945579167,0.035590977919235336,0.0356327606877499,0.03574194121203307,0.03576903953115621,0.03585724935374121,0.035930659277286316,0.03604753518603828,0.03602347505581659,0.03599968690145263,0.0360091832085837,0.036069178802941866,0.036211072143103186,0.03637401360782189,0.03654912567618482,0.036558354177979854,0.03653324249101828,0.0366353690349027,0.03695777537470414,0.03738844038643344,0.03769486538426261,0.03789920712638162,0.03802914171846215,0.03828904499390363,0.03862194179183402,0.03893015988460711,0.03914002904831269,0.03927499140125326,0.03934127884963772,0.039337999363841344,0.03934032808144161,0.03946463615047322,0.039691583461558995,0.04003547408888819,0.040380164259919714,0.04068213578292941,0.040848690945335685,0.04104433485384983,0.04121566112182505,0.041415823141100476,0.04157152407925743,0.04184559440420263,0.042196398156295924,0.04251784530200148,0.04272421888600452,0.04282147246625568,0.042849604091200796,0.04290410739998558,0.04299670955219994,0.04313632032714316
-0.011098607058684908,-0.011098607058684908,-0.011098607058684908,-0.011098607058684908,-0.011098607058684908,-0.011098607058684908,-0.011098607058684908,-0.011098607058684908,-0.011098607058684908,-0.011098607058684908,-0.011098607058684908,-0.011098607058684908,-0.011098607058684908,-0.011098607058684908,-0.011098607058684908,-0.011098607058684908,0.030134570609321523,0.15383410361334082,0.0375326226546474,-0.09792205675211849,-0.261051445653263,-0.16236039414215214,-0.07472819362349654,-0.03609796236824765,-0.01572194756727008,-0.003944186098170775,0.003920349396314842,0.00949605027359063,0.013488909130216591,0.0164414274645053,0.018900676999328476,0.021200697783442378,0.02320962664374149,0.024714749072361063,0.025638612272031885,0.026105503212557727,0.026417992338240215,0.026805369102152442,0.027320451790557122,0.027820476695031914,0.028274003325798547,0.02868246073819948,0.029141040675886597,0.02956776125010938,0.02988956554248724,0.030167427286218775,0.030437875783420665,0.03065937759639374,0.030758933694512967,0.03073953454937592,0.030775559953182558,0.030873270496550864,0.031083266961028522,0.03121924212949863,0.031315748874556786,0.031304084015286796,0.0313163194376053,0.031369470404497425,0.03151492544542622,0.031738347086549545,0.03197278969845201,0.03214907599756031,0.032231832864629814,0.032292855503347796,0.03239411787535931,0.03251509966638012,0.03265613083861232,0.03285749073559479,0.03311660593459554,0.0333448076827755,0.03345564112854795,0.033502083318151785,0.03352914949437359,0.033624408861415586,0.03374246038551006,0.033889428748350665,0.0340505462543239,0.03420759932466084,0.0343321591932472,0.03438630757523488,0.03439019726963293,0.034448595609674816,0.03455593367513897,0.03473750726422685,0.034942227630073354,0.035177261003947365,0.03538866259429824,0.03551977560454753,0.03559302905321735,0.035647266326142624,0.035692926345399,0.035746674114770303,0.03579682046594199,0.035926103625610634,0.03604347634809743,0.036105316431701624,0.03604007522431131,0.03597759631358278,0.03598792000757721,0.036048941187606036,0.036119523826399026,0.03618331580636342,0.03627882812603504,0.03626736761608913,0.03628200042318511,0.036415025546714636,0.03674548664479541,0.037141679179549726,0.037422808550115795,0.03764904192165175,0.037809301544870104,0.038058308568178226,0.03832637149715662,0.0385932395620524,0.0388111747764073,0.03899496786682828,0.03916443891504844,0.03929620080498232,0.0394810839223829,0.039688724615828064,0.03989907333314244,0.04009520254390485,0.04032014182487438,0.04053927236079096,0.04070171125695684,0.04089657070906083,0.041088357833439254,0.041253274984887234,0.041383974647620066,0.04158287079290602,0.041915491257328005,0.042205881483523416,0.042452790613800806,0.04259063540358694,0.042630837639622526,0.042645393649299757,0.04266317237453118,0.04279213646662765
-0.011098607058684908,-0.011098607058684908,-0.011098607058684908,-0.011098607058684908,-0.011098607058684908,-0.011098607058684908,-0.011098607058684908,-0.011098607058684908,-0.011098607058684908,-0.011098607058684908,-0.011098607058684908,-0.011098607058684908,-0.011098607058684908,-0.011098607058684908,-0.011098607058684908,-0.011098607058684908,0.07136774827732795,0.19306496550625452,0.0767634845475611,-0.09399092318246843,-0.25336766399765537,-0.15356923827330193,-0.07127310960840848,-0.03384274535686614,-0.014249138662696337,-0.002908400947834662,0.0047873126035320596,0.010486337111373084,0.014834236977786137,0.017916499389671662,0.02036068570812222,0.022443852745923754,0.024167451814797358,0.025510000912768446,0.026447462036664815,0.027020676086066297,0.027335818874884787,0.027634457807505675,0.028030332626483554,0.028529803010197557,0.029045944987220615,0.02953409920929405,0.02999929728223,0.030496336331518957,0.030860035649972205,0.03116015641293961,0.03133170962657336,0.031464458378316636,0.031547798284988146,0.031597312933455156,0.03169177792537912,0.031741136944837725,0.031796211494826705,0.03182427121469684,0.03190901777602779,0.03196945640413615,0.032018484745196536,0.03202498617342583,0.032042801236314554,0.03213328911136637,0.03231230827310942,0.032582997236224556,0.03279558943958603,0.03297342943205072,0.03315181166269873,0.033322374148364066,0.03345473891396822,0.03354127199025392,0.03371038847847349,0.03392958570591666,0.03411858850303128,0.0342666069265579,0.03435600768791979,0.034461931439647465,0.03451269269494024,0.034606884048424214,0.03475664325612241,0.034977469425194876,0.035100539936798084,0.03508550747118748,0.034966028060979176,0.03499104118321063,0.035117358543081005,0.035341259704725146,0.03555834656423383,0.035750695146468114,0.03590620769408425,0.03602839961986528,0.03615279266394521,0.03624834813443115,0.036244315375303884,0.036210239005434415,0.036211855739274885,0.03631268637593636,0.03643368824696361,0.036486253470042265,0.036450078980469446,0.03645759179903944,0.036579843100268516,0.03670359812819014,0.036748892102377057,0.036706371841180925,0.03678522619660815,0.03684684905881105,0.03694642595824944,0.03708360431442646,0.037366875608810274,0.037698119552242546,0.038053024499670365,0.03836696967507133,0.038683341101631394,0.038942168811410716,0.03917250376493626,0.039382870981378354,0.039564135027625534,0.03975100974941545,0.03991899896188479,0.04010627820794317,0.040322442945705854,0.040551905125639456,0.040752249166623254,0.04092786351710889,0.04105567683361968,0.04112815169790999,0.04126458272768165,0.041502966139006725,0.04175474088818344,0.04186520041804275,0.04197687527132866,0.04214530243753528,0.04248114513845066,0.04280210262239518,0.04312287278692329,0.04332478151549323,0.043308445422899744,0.04327705078959337,0.043292583864212614,0.043494751225725284
-0.011098607058684908,-0.011098607058684908,-0.011098607058684908,-0.011098607058684908,-0.011098607058684908,-0.011098607058684908,-0.011098607058684908,-0.011098607058684908,-0.011098607058684908,-0.011098607058684908,-0.011098607058684908,-0.011098607058684908,-0.011098607058684908,-0.011098607058684908,-0.011098607058684908,-0.011098607058684908,0.11260092594533438,0.2342981431742609,0.11799666221556754,-0.08820807765732624,-0.24540856279324724,-0.1445032982896544,-0.06776426110569357,-0.03248400808421272,-0.014139998331435593,-0.0034156125238420957,0.0038563991393990864,0.009465728938371009,0.014023916752197836,0.017310385873174718,0.01983257845887145,0.021911923355436756,0.023627847479738853,0.024895289191461396,0.025825668437894272,0.02646417895017216,0.026977823976811418,0.02745684442740592,0.027966952463989128,0.02847428719405482,0.02899838760978103,0.02946288120117508,0.02988192582055144,0.03031595722354462,0.03063455813215885,0.030922676106937674,0.031057476160928157,0.031177731420778492,0.0312642331001944,0.03134984219281879,0.03151618659180703,0.03159690382833913,0.03170997171766865,0.03173629381836465,0.03181882543199532,0.03185618473538734,0.03188758215737049,0.03186844165963598,0.031841445498349004,0.031921105870108546,0.032075231389305965,0.03233362086858393,0.03256287405445066,0.032801991007070125,0.03304077832201429,0.033260330434602955,0.033414797434051305,0.03347559148419155,0.03357737701265215,0.03380133258987787,0.03401993311675845,0.034216453354834205,0.0342787206677976,0.0343939502929923,0.034402121511527405,0.034442227709509915,0.03448786207723259,0.034621450573397675,0.034758250629755745,0.03483128878890567,0.03485426516560761,0.034977875971575145,0.03516596817733431,0.03539653335831451,0.035565570172467906,0.03567383316938709,0.03578087065229847,0.03589312581480203,0.03606711213254539,0.03619565728790431,0.03624000137455389,0.03626737265517976,0.03636147329852821,0.03649759433488023,0.0365581130046096,0.03654323378549576,0.0364710040929467,0.03648223467734314,0.0365520573925408,0.03667641825953437,0.036711258333816485,0.03667418795663803,0.03669938994218019,0.036764450922458565,0.036851201994639114,0.03696468478038015,0.0371658886844077,0.03746618969836468,0.037884223203060584,0.03829655528109522,0.03863760843397599,0.038814232161041455,0.038887259727335546,0.03905306306593725,0.03930098449705323,0.03960914839473787,0.03988073904264142,0.04011079260643848,0.040395728998434764,0.04065633583279163,0.040867870463030705,0.041025151935279405,0.04112819319508391,0.04117792066491792,0.04129441845897231,0.04152849283565205,0.04178105885094469,0.04188467096110129,0.04189249581988216,0.04184300133505097,0.04197342584134117,0.04216956542189846,0.042515538439854346,0.04278493298866754,0.04291595177089436,0.04300486297665939,0.04307217706401943,0.043217810009939295
-0.011098607058684908,-0.011098607058684908,-0.011098607058684908,-0.011098607058684908,-0.011098607058684908,-0.011098607058684908,-0.011098607058684908,-0.011098607058684908,-0.011098607058684908,-0.011098607058684908,-0.011098607058684908,-0.011098607058684908,-0.011098607058684908,-0.011098607058684908,-0.011098607058684908,-0.011098607058684908,0.11260092594533438,0.2342981431742609,0.11799666221556754,-0.08668262966773194,-0.2413597846357969,-0.13899656363075585,-0.06331561794595315,-0.03032684476742943,-0.01317707168459389,-0.0026319091441366215,0.00466144657515131,0.010166375225631883,0.014744194314579784,0.018173466040110726,0.020857511004893033,0.022915028631768482,0.0245327693674586,0.0257992637688198,0.026744682675261117,0.027377336489731036,0.027811817265249568,0.028223013481941082,0.028679135726053295,0.02916519680274422,0.029650481204440117,0.03010580802286992,0.030558240835977808,0.031043410017226027,0.03138140463301462,0.03165758404688907,0.031844100588189005,0.03203024536286775,0.032198877518673626,0.03232049425703239,0.03243143329188871,0.032440577830653884,0.032420412665842585,0.032384531577253586,0.03240091716473499,0.03246661084057269,0.032536605031846216,0.03252974861284797,0.03247975922272952,0.032441947781202664,0.03250352950270666,0.032704383070971114,0.033031762860615474,0.033386804878713615,0.03371770292234247,0.033957260006036986,0.03411082702617014,0.03411596203045405,0.03415476491427832,0.03434164569864934,0.03461436375119043,0.03491418002749056,0.03508976614967753,0.03523780806672403,0.035243886821198535,0.03523360932062841,0.03520749876002324,0.0352555964560681,0.035379290839913646,0.03548602791719578,0.0355424506079309,0.035619514413853984,0.03575802867524416,0.035932908025900226,0.03602847037312576,0.03608228590483009,0.03617469745635757,0.036340531919058346,0.03653087986024126,0.03661044592171105,0.0365279112139849,0.03644428015716514,0.03646530463986709,0.03661119082618764,0.036761383960527506,0.03691698393927002,0.03701557535698974,0.037137406701596355,0.03727314452547737,0.03743071079308913,0.037496595777365915,0.037407132959465454,0.03740386217134642,0.03747972228819791,0.037624176747995536,0.037809285586424046,0.03802412257913152,0.03834644682922949,0.03874525542500633,0.03911530467971474,0.03944564491954619,0.03960904944523902,0.03972220857941902,0.03985316904242307,0.040052616438058214,0.04032948538526314,0.040644670652340564,0.040943574743251034,0.041219895890440145,0.04141929006154688,0.041553840200629154,0.04168711226674807,0.04178134511827344,0.041843028221435215,0.04192670098612425,0.042117160110635446,0.04234362240292786,0.04250172855743289,0.04258274566224845,0.042635511349494386,0.0427525805267649,0.04296922954294828,0.04323405579150488,0.0434658942012489,0.04354854702644003,0.04368629498873473,0.043833865986518276,0.044035488436650186
-0.011098607058684908,-0.011098607058684908,-0.011098607058684908,-0.011098607058684908,-0.011098607058684908,-0.011098607058684908,-0.011098607058684908,-0.011098607058684908,-0.011098607058684908,-0.011098607058684908,-0.011098607058684908,-0.011098607058684908,-0.011098607058684908,-0.011098607058684908,-0.011098607058684908,-0.011098607058684908,0.11260092594533438,0.23630045894935364,0.11999897799066028,-0.08068704682291644,-0.2351629272748374,-0.13207752561706423,-0.05999459154112944,-0.02919434775108599,-0.012729577586934536,-0.002534581570586383,0.004693472297530994,0.010087365936756118,0.014459928761472228,0.01777330939374598,0.020391758647292285,0.02248247507261632,0.024173384306494412,0.02554109933951729,0.02653598174230958,0.02717497069903471,0.02756959377624916,0.028014736698542885,0.02850962183450544,0.028960736903064138,0.029377422792761197,0.029736238205936266,0.030169438051390135,0.030610656540571216,0.03098272450206041,0.03131031688722952,0.0316001895775275,0.03189505233715882,0.03218130043212546,0.03236547822628578,0.03243181067041466,0.03237291920921943,0.03232273260303623,0.03230609468553178,0.03230776802063067,0.03235872856454188,0.03244672049020661,0.032497447248609986,0.032546819467298115,0.03256806056615948,0.03262060221456244,0.03273519393446479,0.03294940643447724,0.03323353301912495,0.033470849075624705,0.03369091085216691,0.03383434029569732,0.03391835465383317,0.033972802713346004,0.034107513307034015,0.0342855940611883,0.03456059886729865,0.03478201285288874,0.034976306795800265,0.03502387202870758,0.03501936763735804,0.03498914023746522,0.03499145031082521,0.03516306989731034,0.035412221894592665,0.03567319042203592,0.03585687089793117,0.0359849656322392,0.036091290336436946,0.03607865211463037,0.03605664365131353,0.036090558287232774,0.03627130627986729,0.03651334821330414,0.03660897379879731,0.036591063892526726,0.036525042081549525,0.03657855670069345,0.03670655014649412,0.036853491952815155,0.036977431058175886,0.037079226453174234,0.037197269071114994,0.03737645219029019,0.03755383480398506,0.03766795254426614,0.03760824102552016,0.03757336293439012,0.03759825438362223,0.03772782372890056,0.037952535526788816,0.038187066656018946,0.03848735862800003,0.03876904251884892,0.03900459837049238,0.0392054984177002,0.03939839625136874,0.03957475639329485,0.039731945797535834,0.039873289297257364,0.040125794445515346,0.04042691963510381,0.04071254705894073,0.040954250416556724,0.04116542072727684,0.04129722476989894,0.04142920328014603,0.0415766359985798,0.04176122656163405,0.04185437145312787,0.04198061324927895,0.04212560235977516,0.04236356229160318,0.04250086408679165,0.04263683127758738,0.042737013875414176,0.042909877341656556,0.04307563157202189,0.04318760540698219,0.043226732525657396,0.04329589411181041,0.04345401857832909,0.04365396700714175
-0.011098607058684908,-0.011098607058684908,-0.011098607058684908,-0.011098607058684908,-0.011098607058684908,-0.011098607058684908,-0.011098607058684908,-0.011098607058684908,-0.011098607058684908,-0.011098607058684908,-0.011098607058684908,-0.011098607058684908,-0.011098607058684908,-0.011098607058684908,-0.011098607058684908,-0.011098607058684908,0.11260092594533438,0.23630045894935364,0.11999897799066028,-0.07674293347282948,-0.23010700427749012,-0.1271674516570078,-0.05907824363487199,-0.029405421353647616,-0.012549972332517308,-0.0018584607307557976,0.005751245530172457,0.011209639250471512,0.015459643465703091,0.018737506343981036,0.021303007635902125,0.02335857176445636,0.024988717243128487,0.026413426262499297,0.027462995931856096,0.028131155470123258,0.028433652581415867,0.02874216943175152,0.02918051167319407,0.029658901006841345,0.030060115176375853,0.030384667602529596,0.030806975758552284,0.031228338291986797,0.03158313424310149,0.031905048579261186,0.03226105208003973,0.03260903088576426,0.03290336579503415,0.03305461350204357,0.033023323644758025,0.032892120197244495,0.032779661627508776,0.0327709831640351,0.032788497791584235,0.03289955266528559,0.03306107096722363,0.03319934832360445,0.03328212601874937,0.03330037465179273,0.03332421602261262,0.03340149388736897,0.03353006050177194,0.033733579151775786,0.03391572945680358,0.034135190841341194,0.03428139439403283,0.034391607792085194,0.03451296114116087,0.03465793598702382,0.034871985621305626,0.03514607681889642,0.03543393638267198,0.03568023572518881,0.035794728256006804,0.035813019926923186,0.03576900020727206,0.03573444476314888,0.03587393591876943,0.036040079877537254,0.03621852384975882,0.03627828693692808,0.03631439571559079,0.03634999230287201,0.03635411809855207,0.03639834054376483,0.036495466453612124,0.03664621222455965,0.03676977974834502,0.03676842159842595,0.036764008177867846,0.036785438189579585,0.03688790757638346,0.03698166501453594,0.037112786779938636,0.03718860688091393,0.037311317013370204,0.037468845581028996,0.03779878222099371,0.038047972523858706,0.038220157063062754,0.038212005430115596,0.03825349126995825,0.03835823226062905,0.03850299976440902,0.03873478967537365,0.0389403389527134,0.03916210434554755,0.039357565637881856,0.03953196523894646,0.03970231527625257,0.039890393208335415,0.0400973802494532,0.04028348397322147,0.040455334812349635,0.04072311127412417,0.04103230702318765,0.041313374552032614,0.04153842395887503,0.04175249444806792,0.04188801275613954,0.04201770554193879,0.04220191286187207,0.04243760270335702,0.04254519046669405,0.04261162129585147,0.04268088741261227,0.042876108649979656,0.04305172517001381,0.043330341156479484,0.043609583471957945,0.043992992062689626,0.04423255702304855,0.04433514503962875,0.044250429227645466,0.04421640819048663,0.04428374605321809,0.04445203427483339
-0.011098607058684908,-0.011098607058684908,-0.011098607058684908,-0.011098607058684908,-0.011098607058684908,-0.011098607058684908,-0.011098607058684908,-0.011098607058684908,-0.011098607058684908,-0.011098607058684908,-0.011098607058684908,-0.011098607058684908,-0.011098607058684908,-0.011098607058684908,-0.011098607058684908,-0.011098607058684908,0.11260092594533438,0.23630045894935364,0.11999897799066028,-0.07250611401815608,-0.22580778417796024,-0.12307136501486765,-0.05933375523139074,-0.030032677203778717,-0.013260362974422265,-0.002489285224893025,0.005333219263388921,0.01098929135536391,0.015120320617901658,0.018313319516594567,0.020863688732415283,0.022952429642881474,0.02460588320857309,0.026000247894094317,0.027093054358760884,0.027897999452073947,0.028408016024629487,0.02886871527334204,0.029380434474841906,0.029838588254399247,0.030151998076575953,0.030306063309959917,0.030559582148041674,0.030922379048610123,0.031327172066746775,0.03167286663330805,0.03199859773030731,0.032323598310691454,0.03260583932934291,0.032769676793268906,0.032773523140525535,0.0327089863003889,0.03269177767121814,0.03276322956314315,0.03285798609193561,0.03296932377829148,0.033134187175750604,0.033327910949163396,0.033492939122519466,0.033562323325683444,0.0335314156111145,0.03352068076612199,0.03352874455891404,0.03362871878652908,0.03372460362821443,0.033895444975070216,0.034022636684684936,0.03414363861126559,0.03429074880827794,0.03442160453531709,0.03461838731738802,0.034815551801716166,0.03510293072557282,0.035376343008517414,0.035604409007507394,0.035679979591158956,0.03563831451988562,0.03553717389355473,0.035615295511132655,0.03579864409157086,0.03607159529291161,0.03622001895893674,0.03628500394510701,0.03629840564132746,0.03632619386407049,0.03642992282862172,0.036554086017909077,0.03668384310714437,0.036743010478923796,0.036743019940579526,0.03685210255825132,0.03702701855684243,0.0372151558686484,0.03724307045048196,0.03722945036123994,0.037177118563398864,0.037241099027154334,0.03740219609802609,0.037740508401258005,0.03802800525155238,0.03824148856754184,0.0383386045397463,0.038383743915118965,0.038448161433352834,0.03852006616711138,0.038686173276008574,0.03888855333736067,0.03907716736044775,0.03926126150424614,0.039426560423500547,0.03961274728064581,0.039906981061448736,0.0401679585587749,0.04047051977625664,0.04069387650150271,0.040946982171426324,0.04106892930297136,0.04116270972017734,0.0412886578566671,0.04154037503156595,0.04171250957057328,0.04190048587504017,0.04213784291190117,0.04249143592762691,0.04266138133138204,0.042748014446391286,0.04271591096484069,0.04277271712033362,0.04281580246472051,0.04300854217290989,0.043347230430124055,0.04375701874306897,0.04405356868416578,0.04412427205797725,0.04403194864241234,0.04397292287661348,0.0440232210342029,0.04417293356831233
-0.011098607058684908,-0.011098607058684908,-0.011098607058684908,-0.011098607058684908,-0.011098607058684908,-0.011098607058684908,-0.011098607058684908,-0.011098607058684908,-0.011098607058684908,-0.011098607058684908,-0.011098607058684908,-0.011098607058684908,-0.011098607058684908,-0.011098607058684908,-0.011098607058684908,-0.011098607058684908,0.11260092594533438,0.23630045894935364,0.11999897799066028,-0.07207703883733965,-0.2263296069107052,-0.12393287049337391,-0.06065693554428804,-0.030239950361691588,-0.013055962925483538,-0.0020762237326484865,0.005687348650790487,0.011379909744872798,0.01548519190843445,0.01872112166868467,0.021339367068393216,0.02350320520591451,0.025240912481634112,0.026652079598239897,0.027757067672080686,0.028569106667986482,0.029117214625022838,0.02957810725835799,0.0300992563875505,0.030611100040852122,0.030969180025997956,0.03112728286256008,0.031338752774108955,0.03168814859551793,0.032103760996557526,0.032440275125877154,0.032711243654509364,0.03291780800040105,0.03305161988515838,0.033094366172098155,0.03313243428175023,0.03321531055292544,0.03336229222791087,0.033528764932971356,0.03364773464463176,0.03374930279879118,0.03387222657597852,0.03403840843705913,0.0341543079023245,0.03418775028312298,0.0341168877769884,0.034055102334330484,0.034093026055244016,0.03424826422696268,0.03441736917336842,0.03454587820572344,0.03462372004624965,0.034696964499189034,0.034852397452877146,0.03500330878346197,0.03521366627459035,0.035372715394654634,0.03561847856623963,0.03590414708283955,0.03618430515157699,0.036336725764621915,0.036292048299467555,0.03616138488635532,0.036115621300547185,0.03619271707930067,0.03638060037539453,0.036481490798648375,0.036540839364819694,0.03649670560693781,0.03651556509554216,0.03664023021458502,0.03679387774403695,0.03686775237614173,0.03684985685258601,0.036865387206370774,0.03704677073200877,0.037317387695401945,0.03757248802886218,0.03768889003516968,0.03773016951859117,0.037679297287858425,0.03765017901937517,0.03771162693625571,0.03799225415574522,0.03828741071703773,0.038509372722176534,0.03863677434720332,0.03875889952082118,0.0389450708039633,0.03908662321781437,0.03926441982756564,0.039420751216900037,0.039594871666992534,0.03978586270494716,0.03997236806143641,0.04018400300606081,0.04049184301752008,0.040771142440038835,0.04113320253470427,0.041424325231716644,0.041708117548080736,0.04178605041818678,0.04183654049619724,0.04195985910889754,0.042204346725713306,0.04239030438688322,0.042567680238547095,0.042834874442970794,0.04316378751009854,0.0433876141910585,0.043499834713306484,0.04350810235361759,0.04350733060298175,0.04354127702393642,0.0436931620603279,0.04404244708075159,0.04449578451607812,0.0448367437898407,0.0449653695240959,0.044907772569652935,0.04490586401516626,0.044923683086129644,0.045000236890097335
-0.011098607058684908,-0.011098607058684908,-0.011098607058684908,-0.011098607058684908,-0.011098607058684908,-0.011098607058684908,-0.011098607058684908,-0.011098607058684908,-0.011098607058684908,-0.011098607058684908,-0.011098607058684908,-0.011098607058684908,-0.011098607058684908,-0.011098607058684908,-0.011098607058684908,-0.011098607058684908,0.11260092594533438,0.23630045894935364,0.11999897799066028,-0.07350859437727492,-0.2287169178665268,-0.12631588771318245,-0.06142805890512451,-0.029903679344081262,-0.01264888483531523,-0.0018289523845049886,0.005802147630522966,0.011357128049171307,0.015326326328977704,0.01839777914793651,0.020955298334938262,0.023142956058194695,0.025011299282078545,0.02657706264612244,0.02781120166369746,0.028669938348529354,0.029223808773058094,0.02966428580405264,0.030116730844341938,0.030553960936839597,0.030873078609666742,0.03102062929658077,0.03118402724399542,0.03149001910998977,0.03194387811080434,0.03233832393586362,0.03265586459485909,0.03291286162410393,0.03309787887933567,0.033198422762445966,0.03323720457774623,0.03333041216965129,0.033506604255250386,0.03370895625975256,0.03387452135527022,0.03394387109334553,0.03401344015284875,0.034101928366804125,0.03417168344230476,0.0341649331805349,0.03407268855023428,0.033976217844690834,0.03395530864967777,0.034030197843903175,0.03416886932122832,0.03431324761944961,0.03446037896796863,0.03461148339026255,0.0347704313469909,0.034894174965316646,0.035033717045144366,0.03516287270833264,0.035401962411232085,0.035707063804138114,0.03603134523153132,0.03623401204884488,0.03622624298201007,0.03613201820132868,0.036050097573135015,0.03611200184880899,0.03627453348858315,0.03640561169637076,0.03650991557320886,0.03648925347869553,0.03654810454402483,0.03664598734967609,0.03677786479111172,0.03683113711496082,0.03686200246682255,0.03692035664718259,0.037068880215379185,0.037245060334320616,0.03741700572409827,0.03756136044031569,0.03766697422606652,0.037707271996862704,0.03772024780389283,0.03781418996222864,0.038137171234563554,0.038492456712751325,0.03873429251788214,0.03882977356694785,0.03887790664279273,0.039044960279592644,0.03921490448414124,0.03939710686013084,0.039546865334199995,0.03970213427358818,0.03986396703410882,0.03998584375168887,0.04016191228522513,0.04046465536666484,0.040766472586858546,0.041095977229679975,0.04139672356340442,0.04165310338929027,0.04174691195747417,0.04178382158304711,0.0418985512674114,0.04211858516827284,0.042305448729536135,0.04249035455129605,0.04272072771866284,0.043005581084990266,0.04323907503158615,0.043411488251314446,0.04349991380866427,0.0435474926301519,0.04361219936552175,0.043696654385644504,0.04390352204631812,0.044140576780979546,0.04436166744044695,0.044443293501913644,0.0444450056667971,0.04444845893886958,0.044504379447729475,0.044671561367858714
-0.011098607058684908,-0.011098607058684908,-0.011098607058684908,-0.011098607058684908,-0.011098607058684908,-0.011098607058684908,-0.011098607058684908,-0.011098607058684908,-0.011098607058684908,-0.011098607058684908,-0.011098607058684908,-0.011098607058684908,-0.011098607058684908,-0.011098607058684908,-0.011098607058684908,-0.011098607058684908,0.11260092594533438,0.23630045894935364,0.11999897799066028,-0.0730698268088463,-0.22808439734228253,-0.12543361246202622,-0.06087419338516721,-0.029346270260804937,-0.012135228301956236,-0.001222925288878008,0.0064639352595104276,0.012070666365545584,0.016133777272067915,0.019172228047088655,0.021632187477153435,0.023700203247160347,0.025520867339529536,0.02708116647735822,0.028348105090670414,0.029277674990593413,0.029902201899608113,0.03035694634619895,0.03075601629036427,0.031156652853851604,0.0315392007505007,0.031833801712669044,0.03210477685999349,0.03234401611692535,0.032650028952572276,0.032954936792087296,0.033217601294101284,0.03343896571782641,0.033571945365409715,0.033707010512773666,0.03383359022619309,0.03400812202155616,0.03421495842634544,0.03437609170125888,0.03450013682587391,0.0345357891814948,0.03456760580293056,0.03461069375091523,0.034641134434573215,0.034667829762856664,0.034671434401645156,0.0346528937432032,0.03463281286850032,0.03469650927782503,0.03483784849956483,0.03498808082965005,0.03510530303499348,0.03523673299934414,0.03536431942150707,0.03544709536830919,0.035543983956434835,0.035684375802057605,0.0359260684299923,0.03623049441397077,0.03654191868960225,0.03678105827890876,0.03682308882329478,0.03679251529017437,0.03672277250886463,0.036750030435921795,0.036828642152328034,0.03692755230918529,0.03699689451226133,0.036940137439801374,0.036946031993227435,0.03701270729104729,0.037157839822601166,0.037202182108861434,0.03721185261184349,0.03724811942727687,0.037350637604756785,0.03747435333016568,0.03760225354255208,0.037779621539725035,0.03793452978061105,0.03806060016809932,0.03808228362594068,0.038165640671952016,0.03845898192855736,0.03882038877704193,0.03908561271055723,0.03924504613805027,0.039399314435843436,0.03973386254933787,0.03997011671268731,0.04016639890579262,0.04023769453225339,0.040380476213903276,0.0405051809241028,0.04056954576724112,0.040673212492056035,0.04088501804715785,0.04112499111125259,0.041320472459517824,0.04156512526113931,0.041880017585975045,0.042170732489052426,0.04240674817193781,0.042558790831697044,0.04274854372169269,0.04292640426486987,0.043143657870231944,0.04331809279510072,0.0434908760949062,0.04367470367125562,0.04388042661118545,0.04404226435566116,0.044187566006345984,0.044346381576729085,0.04450413493436107,0.04469111836417562,0.044914861402763046,0.04515023518378236,0.04534091326657768,0.04543394552829244,0.045458310767716496,0.04546988249446542,0.04567278595678416
-0.011098607058684908,-0.011098607058684908,-0.011098607058684908,-0.011098607058684908,-0.011098607058684908,-0.011098607058684908,-0.011098607058684908,-0.011098607058684908,-0.011098607058684908,-0.011098607058684908,-0.011098607058684908,-0.011098607058684908,-0.011098607058684908,-0.011098607058684908,-0.011098607058684908,-0.011098607058684908,0.11260092594533438,0.23630045894935364,0.11999897799066028,-0.07446899212939227,-0.229740409806443,-0.12698444865881267,-0.06119772072562652,-0.029603832250734995,-0.012566622933133724,-0.0015033649734925835,0.006295417361645328,0.011879521578375404,0.015871718747720198,0.01897717555336229,0.021516856476749807,0.023658593823585896,0.02543959561196339,0.02694952585008603,0.02819825433998725,0.0291889048385617,0.029926476181204108,0.030431060164903174,0.030826965532463724,0.031138344211817975,0.03144844700232593,0.031693940230590786,0.03195893382505043,0.032214165527672756,0.03251120984293351,0.03281980950067393,0.03316265075300721,0.033535357790520796,0.03382861837201594,0.034031499116983076,0.03410017169018325,0.03412962293903655,0.03414880799908629,0.034188570651899564,0.0343120403620518,0.034398011001427656,0.03442921941510983,0.03443014039985093,0.03442488250873529,0.034439742412464086,0.034437623515008474,0.034459783879981346,0.03443591771032354,0.03447588642954514,0.03461878924976215,0.034859966604165765,0.03503853124124772,0.03514842708662489,0.03523154519303617,0.03528927073853133,0.03538665372710791,0.03551269849275854,0.035748936533174736,0.03605116476983008,0.03638235137743272,0.03660530925586931,0.0366727581624522,0.03668016134697656,0.03668960185006547,0.03673562864162256,0.03675752786125031,0.03677289807654352,0.03677435907620652,0.03671848044298137,0.03678735800512849,0.03695742802647675,0.037255185607671285,0.03741211404829105,0.037417707768232715,0.03733098734762767,0.03729983639611181,0.03734751862232338,0.03745214426314812,0.03763636387347736,0.0377989700038734,0.03800940950760083,0.03811252396380556,0.03825974635102848,0.038504700015601565,0.03879365578826187,0.03904314814149929,0.039267926733041476,0.03949483123162905,0.039834370168537914,0.040022802621749946,0.04016387345013548,0.04018001454166022,0.040260687567871586,0.04038607248356752,0.04049420829889994,0.04065999371134329,0.04084262055453858,0.04103791145413402,0.041179659158258594,0.041440448151029555,0.04180171726922254,0.04219176470561398,0.042478822274841344,0.04262306230447517,0.0427451858208874,0.042881239602700266,0.04312287002911703,0.043350787394171884,0.0435536088331506,0.04369505407859705,0.04382083872469674,0.04399161903136869,0.04415843706495365,0.044304383668661386,0.044349537322859636,0.044448182738073765,0.044599534910843744,0.04483553850435926,0.04506469894952471,0.04522319758729968,0.04528626305904034,0.04531547854978345,0.04562248423562656
-0.011098607058684908,-0.011098607058684908,-0.011098607058684908,-0.011098607058684908,-0.011098607058684908,-0.011098607058684908,-0.011098607058684908,-0.011098607058684908,-0.011098607058684908,-0.011098607058684908,-0.011098607058684908,-0.011098607058684908,-0.011098607058684908,-0.011098607058684908,-0.011098607058684908,-0.011098607058684908,0.11260092594533438,0.23630045894935364,0.11999897799066028,-0.07500779534662616,-0.2299158257248386,-0.1272043779548693,-0.061078055964845564,-0.02995260174666929,-0.012857958520098786,-0.0015694022108245621,0.006414310883898627,0.012031150807998861,0.016085565834070947,0.01925460851201902,0.021962271959884736,0.024175462864225145,0.025935328220718618,0.027300578996442317,0.02850275748830368,0.029562813878982738,0.030431689374447277,0.031025616948823238,0.0314141699286525,0.03173249179980925,0.03204964341789521,0.03229858161009318,0.032511184968816484,0.03271301418029793,0.032918053614495436,0.033121967957841586,0.033354408814626264,0.03366744418738883,0.03400597009148933,0.03431026813879761,0.03456454651904734,0.0347620298015499,0.034846508017353284,0.03484894885409323,0.03486111392128782,0.03490947065451053,0.03494386484509918,0.03498359127490548,0.035015566883849825,0.03506707231971581,0.03505247467122447,0.0350855362266495,0.03510050135354361,0.03523408818769846,0.035403845560669896,0.03556664238194989,0.03560505074721476,0.035577812478595885,0.03566113584254012,0.03577685885839427,0.03591283534511381,0.036018262198668216,0.03621276167295523,0.036528206272777246,0.036882281013447885,0.037137328298205395,0.037201599125686345,0.03717125555867259,0.03713141848038775,0.03714710026170707,0.037165892682131045,0.03721070212689361,0.03722706839258857,0.03719429773674922,0.03719206336168905,0.03732222281830828,0.037568452523867035,0.03771937134865942,0.03766945965507969,0.037546559093038286,0.03756459275062456,0.03770453854034219,0.03788448250178496,0.03804620940964258,0.038163358875743986,0.03839021445037272,0.03855438147112244,0.03875094032976498,0.03889139421734351,0.039029369054489366,0.03920439024042757,0.039487353553115355,0.03984199327964667,0.04021816778591782,0.0404489717230667,0.0406626465965629,0.040768134330282715,0.040868676816630145,0.04098121006809006,0.041113656992288854,0.04127168407836543,0.04142977728032574,0.041618650687253435,0.04175967552753385,0.0419685490920369,0.042296905370385114,0.042721437990767136,0.043009351641184426,0.043106259375413666,0.04315302071503132,0.043306216887032206,0.04359077259915918,0.04388808049862519,0.04416445708236261,0.04431509959621095,0.04441826687524832,0.04456986628888585,0.04472379975761863,0.044828262592679954,0.044845472512065596,0.045011559852015215,0.04525055089313176,0.04554428997980298,0.045781295390024776,0.046012015574778235,0.046159128701434037,0.046285822019596426,0.04667753092227605
-0.011098607058684908,-0.011098607058684908,-0.011098607058684908,-0.011098607058684908,-0.011098607058684908,-0.011098607058684908,-0.011098607058684908,-0.011098607058684908,-0.011098607058684908,-0.011098607058684908,-0.011098607058684908,-0.011098607058684908,-0.011098607058684908,-0.011098607058684908,-0.011098607058684908,-0.011098607058684908,0.11260092594533438,0.23630045894935364,0.11999897799066028,-0.07883743432722051,-0.23484181932807918,-0.13260555687873754,-0.06274712241713257,-0.030481304271900194,-0.012947728557135198,-0.0016641783342270895,0.006167331384880065,0.01172619201050619,0.01572234170348937,0.01885529715803525,0.02159389560393877,0.024009283119198286,0.025968618265815025,0.027427295433620182,0.028588069469461377,0.029621434177815275,0.03045591855600745,0.03105269308504418,0.03142473597853905,0.03174468326906601,0.032058135758928206,0.03229800028202338,0.03249391119657772,0.03270616147545246,0.03293280717758144,0.033163697627101064,0.03342494974458859,0.03373724504605439,0.034120569910080153,0.034397293200383,0.03465233303868333,0.03484478674581075,0.034943916712547055,0.03492189020697225,0.03488721554059572,0.03491181141220197,0.03495138325104342,0.034956413068652124,0.034985895816770016,0.03501929115274294,0.035004766371868536,0.03498813299120875,0.03496157123661825,0.0350251895780099,0.03513029853851809,0.035259735201281096,0.03533293922105751,0.03531126389803357,0.035391201150767354,0.03553596325979783,0.035702056469817216,0.03581816910400674,0.03594140125479283,0.036192102441218246,0.036505624132271465,0.036759980960058315,0.036896731416726135,0.03691231778458633,0.03693601288154113,0.037006141769786345,0.03709080409186169,0.037110608175905266,0.03710532127659052,0.03704571356231971,0.03707120302983739,0.03711823732753497,0.03735103965898811,0.03752601630723034,0.037575229161858584,0.0374727012902494,0.03747078744023927,0.03761031133121784,0.037818405945852146,0.03803603886482387,0.038229520550241335,0.03844671044173667,0.03865147975850847,0.038872263417952906,0.03903002633946082,0.0390968109401346,0.039193674046227776,0.03943827613878527,0.03977186854458168,0.040055331923116444,0.040281649945221196,0.040532749180785754,0.040744622726848576,0.040857809579674616,0.04099510427025332,0.04115076820146143,0.041338218963884565,0.04148203140292564,0.0416953579935467,0.04188672444124504,0.04210147202698079,0.04237392147684556,0.04275620775341639,0.04296157248779186,0.043006694078758935,0.04298716485051888,0.043144815251951546,0.043398722927632236,0.043703989180876965,0.04399756567604743,0.044207551392485785,0.04433083032396324,0.044548976114529015,0.04473704131165515,0.044856049393060184,0.04483415162756276,0.044953717790372986,0.04512693491226639,0.04532236236247919,0.04547589161936019,0.0456636683052241,0.04575766397719087,0.04583472109079162,0.04617630789190842
-0.011098607058684908,-0.011098607058684908,-0.011098607058684908,-0.011098607058684908,-0.011098607058684908,-0.011098607058684908,-0.011098607058684908,-0.011098607058684908,-0.011098607058684908,-0.011098607058684908,-0.011098607058684908,-0.011098607058684908,-0.011098607058684908,-0.011098607058684908,-0.011098607058684908,-0.011098607058684908,0.11260092594533438,0.23630045894935364,0.11999897799066028,-0.07940970793492752,-0.2357234580093528,-0.1338057061711381,-0.06333104097872193,-0.03060280266357821,-0.012512752208423496,-0.0010387513626093764,0.006955249832405942,0.012543504858418654,0.016572614218940674,0.019503205662394937,0.022003440344404712,0.024167590733188762,0.02610437674915133,0.027634214766258863,0.028887403548188296,0.02999237728886249,0.03094090733862716,0.03161161626431803,0.03195142987352939,0.0321843797470846,0.03249463546279907,0.03280551476317495,0.033013365958771884,0.03311016129511905,0.03319804122876626,0.033295727607500526,0.0334617530671295,0.033653806862796724,0.033959644845464244,0.034213858710352825,0.03456257774108664,0.03498767742330779,0.035359455949640996,0.035527171620705254,0.0355414332208864,0.035620390189031216,0.03576240644140632,0.03585094563661167,0.03588794705523893,0.03587141865364802,0.035811442249706275,0.03573205288712054,0.03564643300971622,0.03564850738135613,0.035680056898765675,0.03574934663373511,0.0357960630611346,0.03578637830974152,0.035887916312930264,0.03608870726235496,0.03632567332382924,0.036520400274285054,0.03671398406921973,0.03697676503873858,0.03720634532025465,0.03736822175200209,0.03745834455045764,0.037477198506719614,0.03748325792153614,0.03753881736619882,0.03769249285960575,0.03780556079313173,0.03785818004555132,0.0378215198622439,0.037807078374449424,0.03772995366866071,0.037758029859491525,0.03777399802888563,0.03779342292169655,0.03775638401935305,0.03781381499894493,0.03796965605989343,0.03816650884367455,0.03833726373893619,0.03855698338757249,0.03881598176061731,0.03908545164629475,0.03934114223089051,0.039477511839532756,0.03955817424174595,0.03963078597753377,0.03985434610287578,0.04015861831515968,0.04046536555177169,0.040769065571672855,0.04106970143032265,0.04132612605227947,0.04147230263341615,0.04159754176115091,0.04174439646005727,0.041888940977124464,0.04201726443707761,0.04224836556726155,0.0424510324837525,0.04260515625303311,0.042731373086040296,0.04301014498150734,0.043277100045200564,0.04342748654540826,0.04354315460769329,0.04377818806559394,0.04401123691954593,0.04422206723345152,0.044422763543900026,0.044653598936296196,0.044864319054698565,0.04511215535565975,0.045357481172010834,0.04553123824784545,0.0456449799684333,0.045807891759380194,0.04592020239803506,0.04602227402339214,0.046100503153489444,0.046281737073224596,0.046355421265958555,0.04646021624742224,0.04674685591610071
-0.011098607058684908,-0.011098607058684908,-0.011098607058684908,-0.011098607058684908,-0.011098607058684908,-0.011098607058684908,-0.011098607058684908,-0.011098607058684908,-0.011098607058684908,-0.011098607058684908,-0.011098607058684908,-0.011098607058684908,-0.011098607058684908,-0.011098607058684908,-0.011098607058684908,-0.011098607058684908,0.11260092594533438,0.23630045894935364,0.11999897799066028,-0.08380529281429668,-0.2418726663475078,-0.14094175622270474,-0.06629653052618668,-0.03200936288254437,-0.013270460436056267,-0.0018384131896366958,0.006249309682138654,0.012205134779242576,0.016491408641841416,0.019467762915746603,0.021836161195601046,0.02395113637715143,0.025906676662013704,0.027474198564734893,0.0287241021015879,0.02980037211495902,0.030782638627381727,0.03151619178939118,0.031958015328241794,0.03222213022049577,0.03252370645770611,0.032848260252097514,0.03322275490841806,0.03348143069828039,0.033699708243531405,0.03384839623413741,0.0340848803840549,0.03427688668036675,0.03446582502896331,0.034470306727417584,0.03456528515630544,0.03479185523894663,0.03514232019730844,0.03534555841496491,0.035373702484267834,0.035435244229225914,0.03557159204536599,0.03570511162694655,0.03574673201549039,0.035711127818076074,0.03564257429347647,0.0355605066767024,0.035477883032498284,0.03544091748742381,0.035456309739838675,0.035555056152652795,0.03567853698336977,0.035719894732242366,0.035728214563360707,0.03585315735683187,0.036077913822918625,0.03632365891266086,0.03651383257510984,0.03667841513237919,0.03680458694964774,0.03689347317891156,0.037032851140624906,0.03718965566740501,0.037335151175402835,0.037442996268425774,0.03758908353950424,0.03767522011192269,0.037680127507347685,0.037649914903316685,0.03764709754540516,0.037621386852639396,0.037663048179643645,0.0376858915197917,0.03777140202428043,0.03781134918207784,0.037893388150442284,0.03804041064225198,0.038235326435493835,0.03847083352874549,0.038685167298040925,0.038881693843475874,0.03903482461055023,0.039185514852641885,0.03928483849290033,0.039445273148708486,0.039674985421358736,0.04000364001056907,0.04032397596131224,0.040650916762315845,0.040950616069965605,0.0412195607484175,0.041368490544370515,0.041456215592006365,0.04158897099821983,0.041721453441108544,0.04190052139893539,0.04205955099528177,0.04233040248882989,0.042578459619884323,0.04272867629965761,0.042851883201596705,0.04304872565238249,0.04333520831266893,0.043523206558906104,0.04365036728382442,0.04381128962694906,0.04395002367956203,0.044072103278946013,0.04419077302752392,0.04441819440023352,0.044645620603103175,0.04489556162052155,0.04511651149789599,0.04533939139487424,0.045555172073946486,0.045779413120607425,0.045951488995534785,0.04601301850113279,0.046043627738628135,0.046059090521373386,0.04607229920690049,0.046106213411460754,0.046258618773509494
-0.011098607058684908,-0.011098607058684908,-0.011098607058684908,-0.011098607058684908,-0.011098607058684908,-0.011098607058684908,-0.011098607058684908,-0.011098607058684908,-0.011098607058684908,-0.011098607058684908,-0.011098607058684908,-0.011098607058684908,-0.011098607058684908,-0.011098607058684908,-0.011098607058684908,-0.011098607058684908,0.11260092594533438,0.23630045894935364,0.11999897799066028,-0.08756314963849055,-0.2466161267179025,-0.14622230691197316,-0.068071813780254,-0.0327991298330451,-0.013436665684848366,-0.0017982715845019487,0.006214596738446047,0.012117451811996109,0.01654053349708826,0.019743255358336844,0.022119614361182555,0.024108477307722333,0.0259107525676542,0.027512384467814364,0.028907765245185128,0.030092831010789415,0.031118296866621282,0.0318415522719942,0.03228021041244834,0.03256834375386679,0.032833757702037905,0.033082827206954796,0.03336786822848724,0.03364217065661735,0.03392105169340287,0.03409442515486264,0.03432943778317697,0.034541906380310454,0.0347513737851057,0.034751249244398014,0.03473625308108033,0.03485792473209616,0.03522759520185914,0.035619226846265235,0.03587981950933326,0.03607701648940919,0.03624778789566782,0.036396054535542226,0.03639982814382508,0.03635745871251154,0.036287504901199565,0.036255954486627794,0.036207398179629625,0.036201145903651866,0.036228875400466556,0.03630121178802706,0.03634704525988164,0.03639326286558066,0.03641857184126125,0.03658219328280233,0.0367936956048451,0.037058580826035754,0.037282406514375206,0.03746829846694726,0.03752535825768447,0.03754638933974866,0.037617639725524336,0.03783547480190089,0.038026966131803425,0.038127725046566766,0.038177630193596324,0.038198083448191665,0.03816806339781416,0.03814201895363385,0.038094061405161556,0.03804615998577271,0.03798930759103577,0.03795283465736876,0.038000844881501614,0.03810590863601166,0.03829744798687961,0.03854111024894092,0.03877230581654846,0.03892298615558538,0.03902373079942838,0.03917404682310248,0.03931398911330676,0.0394175454227668,0.0394918521613952,0.039670132000164574,0.03999698522255859,0.04036750384613881,0.04076835513632768,0.04118212666564748,0.04151785253256991,0.04176087806168294,0.04183823629103431,0.04190709810792177,0.04197668931000925,0.04207856237409545,0.042267369125120885,0.04248534579779038,0.04279892935774689,0.04303435393480492,0.043188763689348486,0.04329110404768327,0.043483053432438905,0.04379860417466388,0.04402338824888867,0.044204028431867166,0.044382138741165006,0.04460503369100586,0.0447548924552445,0.04487011723962161,0.04505554688806819,0.045276798679419465,0.04550984753319733,0.04566459478201536,0.04581658024498209,0.0460058249238347,0.0462422488390046,0.046430004000767154,0.04652456788895122,0.046578693323523414,0.046638251919522644,0.046747485372600955,0.04688587103581676,0.04706676522908178
-0.011098607058684908,-0.011098607058684908,-0.011098607058684908,-0.011098607058684908,-0.011098607058684908,-0.011098607058684908,-0.011098607058684908,-0.011098607058684908,-0.011098607058684908,-0.011098607058684908,-0.011098607058684908,-0.011098607058684908,-0.011098607058684908,-0.011098607058684908,-0.011098607058684908,-0.011098607058684908,0.11260092594533438,0.23630045894935364,0.11999897799066028,-0.09159726133870846,-0.2528480093365193,-0.15367517562570526,-0.07210933803233552,-0.03493094659147723,-0.014636670532831334,-0.002581516242281994,0.005470701590240176,0.011432698610311381,0.01587605823140984,0.01923247537344036,0.02181915595809341,0.02395304467363628,0.0257877972660451,0.027360157200602926,0.028805892001372728,0.03004819399595965,0.031150390315905205,0.03197125611678238,0.03254950492057319,0.03294978186601869,0.03323100982792496,0.033460605343789585,0.03373763890195012,0.0340502142835892,0.03436511305321468,0.03459460420360218,0.03477976870603992,0.03497282269367001,0.03513985774942132,0.035172016845504805,0.035115830217297916,0.03508028045188451,0.035282238949677,0.035609702086927555,0.03589306969869081,0.036061705284109076,0.03615976741449534,0.03623578804450488,0.036217769025631195,0.03619197687685542,0.03618789295795917,0.03620524932999287,0.03618214282205027,0.0361700706030648,0.03620720953868337,0.03624670662165435,0.0362314156059931,0.03624105618648467,0.0362154043629844,0.03631481018212329,0.03646121925590458,0.036644052279338285,0.03678280399231901,0.03687634718416778,0.03697078510194697,0.03706045929646999,0.03715734621093873,0.0373700657385099,0.037578953778019224,0.037724455273691615,0.03776855598496533,0.03778659874646431,0.03779687346656642,0.037824631260786085,0.03782926816449192,0.03790527866324066,0.03797073905258322,0.03803081261570718,0.03806884099767542,0.03817340691731473,0.0383825309877214,0.038673941887469414,0.038905879658407,0.03905977331515364,0.03905159665743716,0.039067172931670294,0.03911400321539989,0.039201483770869086,0.03935604537034432,0.0395645230745244,0.0399458527792156,0.040326090454335876,0.040751710597299935,0.04117714721436371,0.04155313247833781,0.04184556921060681,0.04196210141189411,0.04201053516486576,0.04201543779733206,0.042043932163434425,0.042226380449931405,0.04250029521033833,0.04285926897146065,0.043125575434382155,0.0433162564337827,0.043454612698196005,0.04364191904859112,0.04383752572887254,0.04393456355517122,0.04397553825750025,0.044082389343704995,0.04433496194676494,0.04452415645255575,0.044670372407243406,0.04481354337562248,0.04497784497410974,0.04511253446951564,0.04517876901417019,0.04530553640317446,0.045557225292343254,0.04589834297490516,0.0461858322024999,0.04634017159621764,0.04640761559653674,0.046477224320080106,0.046596670045778686,0.046688364851492636,0.0467890387582794
-0.011098607058684908,-0.011098607058684908,-0.011098607058684908,-0.011098607058684908,-0.011098607058684908,-0.011098607058684908,-0.011098607058684908,-0.011098607058684908,-0.011098607058684908,-0.011098607058684908,-0.011098607058684908,-0.011098607058684908,-0.011098607058684908,-0.011098607058684908,-0.011098607058684908,-0.011098607058684908,0.11260092594533438,0.23630045894935364,0.11999897799066028,-0.09413065032319112,-0.2568682133823853,-0.15852551349297894,-0.07527888180983983,-0.03701011684034416,-0.016068088486913424,-0.003302919920876233,0.00504586082112124,0.01110179564716057,0.015635645442921644,0.019080251688293352,0.021755594748515645,0.023945401414201116,0.025782321847963856,0.027440622303713944,0.028970029087509643,0.03033485565944051,0.031477724021618705,0.0323430861377265,0.03291270845920639,0.03327466065742124,0.03353674576589693,0.0337740662365731,0.033962186262765745,0.03420875037418541,0.034459337318855886,0.034716829538413665,0.03490314514655425,0.03511921537104334,0.035384679372322536,0.035589875880344915,0.03570001445376035,0.03577490806004469,0.03595815178015057,0.03625042873308562,0.0365324613707711,0.03675020726972014,0.03688287925242733,0.03698224386444728,0.037014520012091434,0.03703962078598495,0.0370700044159108,0.037092960006583194,0.0370705875516616,0.03703879334718531,0.037011776968456346,0.03698506317658347,0.03692856775240033,0.03694732208509933,0.036990540156323644,0.03708753695391364,0.03720797896677798,0.037327724253016455,0.03744886954614936,0.03751769883385203,0.03761192911816473,0.037733006698374136,0.03782104388086484,0.0379688739370584,0.038127864962014445,0.038265050295311194,0.038316496913630524,0.03833696444425872,0.03838371708996161,0.03842336172549375,0.038450241183621406,0.03847376391359779,0.038533692837217526,0.03857618161659278,0.03863203224435722,0.03872026060169932,0.03887732336649789,0.039092334551454874,0.039240344523587725,0.039329263903718534,0.039345762054858485,0.03938237374460006,0.03946841684132211,0.039609789870795775,0.039858038805654764,0.040094094146635714,0.04038819595725412,0.040655195296882045,0.04105913125619282,0.04148475999243123,0.04189549802628702,0.04219998698809851,0.04238463030294862,0.0424813191011138,0.0424690107100966,0.042459773464753284,0.04258606744358935,0.04279702959519625,0.04310102286889163,0.04335343715897027,0.04363885621339138,0.04386171966651004,0.04408325384563615,0.04423732081545498,0.04431152559252641,0.04443210214663622,0.04465426475490702,0.04497048510598608,0.045182024132793264,0.04532799128057824,0.04549141413270019,0.04568413175017496,0.04580915919250676,0.045867524061353415,0.04591369856708465,0.046089561739025696,0.04628982616517947,0.04648629799101562,0.04670455309024635,0.04692438747009197,0.047157258470800135,0.047280803449337216,0.04740699571200971,0.04752984644824015
-0.011098607058684908,-0.011098607058684908,-0.011098607058684908,-0.011098607058684908,-0.011098607058684908,-0.011098607058684908,-0.011098607058684908,-0.011098607058684908,-0.011098607058684908,-0.011098607058684908,-0.011098607058684908,-0.011098607058684908,-0.011098607058684908,-0.011098607058684908,-0.011098607058684908,-0.011098607058684908,0.11260092594533438,0.23630045894935364,0.11999897799066028,-0.09886530929040868,-0.2644419415665635,-0.16693780310724352,-0.07934892233619066,-0.03866792629610936,-0.017296648116791304,-0.004323785707650101,0.004304388487082131,0.010665983424125489,0.015388078689454038,0.01895947314612779,0.021796330961566072,0.024055297220431853,0.025942295628802167,0.027566881219680695,0.02904194896570141,0.030396669374060045,0.03164633227910604,0.03265381785690743,0.03337164757220126,0.03372557710797754,0.03398487323114401,0.034205081928972855,0.0344104217708828,0.034630655520826156,0.03486094583879995,0.035107550405136294,0.03527087848116814,0.035429793145488164,0.03559540259858934,0.0357439092048347,0.03583922565823053,0.035902328917659,0.03599588155354047,0.03614540271742258,0.036269243789977375,0.0364628475901496,0.03663925133726761,0.03684383062223293,0.03694432950816005,0.03696427361825885,0.03695789524980416,0.036916308019569806,0.036878582062244536,0.036846801694567194,0.036810369616291416,0.0368190769294147,0.03680744323065129,0.03683740135916698,0.03688275850533535,0.03695812473917082,0.03710762773432077,0.037221641125601786,0.03732829955428415,0.03732750452944955,0.03738717722433264,0.037501765677331024,0.0375864342440549,0.037632759088495546,0.03768127891326528,0.03775578347340628,0.03789389537627599,0.038075809621201884,0.03830605855253642,0.03845955493617194,0.03855120357757302,0.03862032944939717,0.03871905361574385,0.03876757592388653,0.038820444533652285,0.03883270929145897,0.03888077806809859,0.038967740287869035,0.039083242520424624,0.03926085005765671,0.039369950508014444,0.039394875232506676,0.03939684646214684,0.03953991008591191,0.039854925874898584,0.040158942319710296,0.04040355521963496,0.04064596363148191,0.04101683810967518,0.04139079600792228,0.04173701827571154,0.041988372722778014,0.04219445057482013,0.04234945099578755,0.0424435771568154,0.042525495151429504,0.042643175533222825,0.04276917125451073,0.042995069195687796,0.04325788270912289,0.043621588547556184,0.043910130689875836,0.044087455572650563,0.044109261841213915,0.04409337083160476,0.04415607532538252,0.04435747563929266,0.04461504550989684,0.044851535814044725,0.04502610689117094,0.04518132474298638,0.045351052062623874,0.0454647186265268,0.045598251353696724,0.045726716336303506,0.04590870813963895,0.04603529096369804,0.046162335200150256,0.046359095325725366,0.0465391788448569,0.0466858545408758,0.04678200396536576,0.04692780717605669,0.047044976389309885
-0.011098607058684908,-0.011098607058684908,-0.011098607058684908,-0.011098607058684908,-0.011098607058684908,-0.011098607058684908,-0.011098607058684908,-0.011098607058684908,-0.011098607058684908,-0.011098607058684908,-0.011098607058684908,-0.011098607058684908,-0.011098607058684908,-0.011098607058684908,-0.011098607058684908,-0.011098607058684908,0.11260092594533438,0.23630045894935364,0.11999897799066028,-0.10836477904458341,-0.2798866905963224,-0.1843774396366932,-0.08815652861873396,-0.04182128448872928,-0.01864391422506739,-0.00511868662502609,0.0036855708259780203,0.010201316897014485,0.015203198778593323,0.018848791844531674,0.021710683894224092,0.024028014758321684,0.02599104551257235,0.027691648735693457,0.02914290988978114,0.030469737839830594,0.03162170452096475,0.03259654435086658,0.03332454129252805,0.03375737974969137,0.03408771408589729,0.03435088391173765,0.0345906383862173,0.03485245670755298,0.03511496666387245,0.035393354146667805,0.035631662448457654,0.03586777725994123,0.03612649708655864,0.036333096231429204,0.036520435018479916,0.03668872098613307,0.036863096958078004,0.03696294820905607,0.03692901355469412,0.036946974247236995,0.03707626722861483,0.03738861514340501,0.03765260555381745,0.03780781951464227,0.03784648997168674,0.03784798112216135,0.03779311726086522,0.03770976589187768,0.03763354910346503,0.03763864726149069,0.03765789121957261,0.03767033066975338,0.037711613858782245,0.037757471499212644,0.03787392758788413,0.038026060008359674,0.0381752908876916,0.03823404722799961,0.03825914101868731,0.038339920657350944,0.03837437880759307,0.03832177707442295,0.03826047817317559,0.03829674242500501,0.038423065173053425,0.03862207965195947,0.03883388431085392,0.03902587997700529,0.03918049688621679,0.03927785881394169,0.03935877215883229,0.0393797779738527,0.03943451327290618,0.03942084952270953,0.03936547529557878,0.03931027821925925,0.039336689652755046,0.039459859536080895,0.03964052904084342,0.03978530422186949,0.03994659719892116,0.04016539375875866,0.04050056148666345,0.0407612839145073,0.0409119342551611,0.04111952490006913,0.04151745483385132,0.041917144100235296,0.04218436086193581,0.04233673250609482,0.042514854750524245,0.04274777940406625,0.042936796895959854,0.043096068303564765,0.04321524683782348,0.04332155485143787,0.04349726057774452,0.04368324955067182,0.044018759698439144,0.044303001542065394,0.04451708256506326,0.04453706366218898,0.04453372530589185,0.04462373212400066,0.044846404466154025,0.04508720406735271,0.0453135800920955,0.04553175272091046,0.04572918768465259,0.04592595881257125,0.046094176026570566,0.046305550190529225,0.046484553178082456,0.04657412497931692,0.04655791695499588,0.046575949551827374,0.04671842035402992,0.0468923737785393,0.047047532170293595,0.04720578872480739,0.047421983604379436,0.047578426470155304
-0.011098607058684908,-0.011098607058684908,-0.011098607058684908,-0.011098607058684908,-0.011098607058684908,-0.011098607058684908,-0.011098607058684908,-0.011098607058684908,-0.011098607058684908,-0.011098607058684908,-0.011098607058684908,-0.011098607058684908,-0.011098607058684908,-0.011098607058684908,-0.011098607058684908,-0.011098607058684908,0.11260092594533438,0.23630045894935364,0.11999897799066028,-0.1157150851427497,-0.2909691225221843,-0.19738718037784414,-0.09476653921882132,-0.04531762638368224,-0.020638007700515458,-0.0064495437924196345,0.0027660264440794637,0.009555354542631834,0.01486679959900656,0.01881911117990595,0.021937576539317494,0.024333784879144168,0.026277898658854486,0.02792984897113032,0.02936588686247114,0.03071304607680044,0.031954378455075524,0.03300273135390111,0.03374252377084762,0.0341679900807534,0.03447011466221402,0.03473389142950061,0.03495862890971278,0.03518202514857383,0.03539610372914928,0.0356210729162768,0.03577057549337962,0.035934829814001326,0.036088262882857894,0.03626780190986767,0.03643489498304461,0.03657982958640958,0.03668641005021843,0.03672951914978356,0.03668060831794622,0.036677192378991995,0.036775526293887105,0.03707064111689793,0.03732788869687856,0.03747815699373229,0.037514589695604984,0.03754067232800321,0.03750086351577181,0.03745253112755789,0.03747085183430331,0.03761004787820442,0.03768538313587617,0.0376951850647124,0.037710817829727246,0.03771848111749719,0.037785637447458525,0.03788943589914846,0.03805049540006784,0.03816635980004423,0.038239167769053325,0.03834465102041096,0.0383448424734834,0.03826632610684809,0.03814537881307765,0.0381444192565414,0.03824064722463226,0.03841671538360587,0.03861449979616311,0.03877039684475056,0.03894610025899678,0.03914611065222646,0.03934936828813853,0.03948088803456381,0.03957988637077457,0.03959388665534555,0.03956134026141014,0.03946124829883912,0.039452708904286996,0.0395306413657466,0.03969048244808091,0.03976919997098115,0.039899184625296596,0.04006474306656815,0.04035905198313478,0.04056044685395793,0.0406918313330457,0.040916710900030226,0.04135637997151779,0.041804501500069875,0.04209331446581928,0.0422338094061613,0.04238153153725796,0.042626415827437876,0.042875070510334116,0.04310906534561991,0.04327331070591842,0.04337043974116153,0.043530336965457814,0.043660748328639816,0.04390141882622461,0.04412663045594711,0.04435240649359025,0.04440610316568277,0.04440727051837087,0.04443947922773716,0.04462304818508041,0.044833122926679125,0.04507247034791759,0.04529442843643352,0.045469678825987354,0.045613617624845636,0.04576733322970649,0.04599293695587183,0.04622944188916981,0.04632249807952443,0.04632289423834599,0.04626655040188463,0.046303112662053655,0.04638195735190821,0.04649627475078615,0.04667009378778739,0.046865264786964095,0.047002940580414564
-0.011098607058684908,-0.011098607058684908,-0.011098607058684908,-0.011098607058684908,-0.011098607058684908,-0.011098607058684908,-0.011098607058684908,-0.011098607058684908,-0.011098607058684908,-0.011098607058684908,-0.011098607058684908,-0.011098607058684908,-0.011098607058684908,-0.011098607058684908,-0.011098607058684908,-0.011098607058684908,0.11260092594533438,0.23630045894935364,0.11999897799066028,-0.12000203597205242,-0.2989203468716924,-0.20732492549633144,-0.10147959865113627,-0.04897879131833082,-0.022613487824130897,-0.007727305241147428,0.001815704364066671,0.008654729441194157,0.014000664474500569,0.01798158147727,0.021196293177973183,0.023815212963696937,0.02594314463371547,0.027627893290057944,0.02903716009301441,0.030365616023194084,0.031606771746606865,0.03276080457622936,0.03361274896080154,0.034186695993436725,0.03459727662634132,0.0350113068489836,0.0353332891960679,0.035578175610916626,0.03576157839435432,0.03603209389481915,0.03623535459440369,0.036446210582263924,0.036623596326070935,0.03685224979361481,0.03706749626134227,0.037304224098901044,0.03748479427354943,0.03754517513098189,0.03752541455801532,0.03754029321785597,0.03769333742308564,0.03800660660168854,0.03827475750898479,0.038428228619260985,0.038414862361891865,0.03838176047301557,0.038276255528028394,0.038198005259118886,0.038190825808708286,0.03825852116117007,0.03824594778167304,0.03821093648720211,0.03825381140187644,0.0382895400941505,0.0383370214785896,0.038389382435864414,0.03854266439523664,0.038693034139010145,0.038838357543210605,0.03899237950402372,0.03905581475539964,0.039009539307474195,0.03890800701759742,0.03884069127860004,0.03884078082141742,0.038892892120663394,0.0390067013652732,0.03907215717932778,0.03922333733700736,0.03946098893547201,0.03976678304009156,0.03995675713949584,0.04004608565506551,0.04010051422945354,0.04009647912748424,0.04003939863553689,0.03997136938107679,0.040002511757544816,0.04011907458051572,0.04021002819204878,0.040356284539942854,0.040499073151391236,0.04076093816980358,0.04097925679493231,0.04120126062831567,0.04145537292395053,0.041847273174139804,0.04227151635677833,0.04259088598517925,0.04277866658581324,0.042922027720908446,0.043164487721321275,0.04341273049328249,0.04362614870871647,0.04379053840589182,0.0439496000223258,0.04416844452921842,0.04431669192629091,0.04449229124862593,0.04468755130267285,0.044929373335262125,0.04505635450814021,0.04509374365050779,0.04511016422651205,0.04523083304187244,0.04537741112856588,0.045579758159905705,0.0458067860378865,0.046042348524663296,0.046241950972609316,0.04641590683898851,0.04662219730428738,0.04681165333447019,0.046928636070851446,0.04698383212122593,0.04694728787860609,0.04694565695073542,0.04697866507652438,0.04711928028980143,0.04729421145677962,0.0475051279762305,0.04765867148633259
-0.011098607058684908,-0.011098607058684908,-0.011098607058684908,-0.011098607058684908,-0.011098607058684908,-0.011098607058684908,-0.011098607058684908,-0.011098607058684908,-0.011098607058684908,-0.011098607058684908,-0.011098607058684908,-0.011098607058684908,-0.011098607058684908,-0.011098607058684908,-0.011098607058684908,-0.011098607058684908,0.11260092594533438,0.23630045894935364,0.11999897799066028,-0.12000203597205242,-0.30079977699481636,-0.21043283064672505,-0.10549818769810564,-0.05182456749335181,-0.024494724708838702,-0.008710675022903474,0.0014523776840071711,0.008506635491646158,0.013872403535652937,0.01798065193287926,0.021281612689938726,0.02396840468421549,0.026168754493281876,0.027908108006220827,0.029349731628809814,0.030668665816312637,0.03196397605028271,0.03318972362458323,0.034106572553972266,0.03469452413504126,0.0350380962793273,0.03540262604581183,0.035650025900890336,0.035817732261350446,0.03592271831529617,0.03614616331811573,0.03635912416357809,0.036547606566904964,0.036629600060831206,0.036733013843265855,0.036808555375660926,0.03697621967837369,0.0371235452186881,0.03718250861042431,0.037216102022693015,0.03730781484474899,0.037474258849367184,0.0377044803701704,0.03790360926354849,0.03808696754269099,0.038156036233843685,0.03812776863441088,0.03806277453319784,0.03803439544664306,0.03804959302802329,0.03803686121650143,0.03796649637179693,0.037937735550902955,0.03802475864700779,0.038108845100062384,0.03820927679106278,0.03829025715365073,0.03843239027974063,0.03854684312441058,0.0386512271781461,0.03873849508191175,0.03885157169293859,0.03893445487050524,0.03900053259513067,0.038957663538131335,0.038938442244331656,0.03893258338172595,0.03900367177947943,0.038976200084509485,0.03904475906267377,0.0392189507738604,0.03953755021236952,0.03971544900673213,0.039831306729613256,0.03994271188255839,0.04008686627615295,0.04017150478626343,0.04018647384203598,0.04028454768770717,0.04033036559157418,0.04032147899734343,0.04025944370044567,0.04024703286462298,0.04042409906737267,0.040678127791365246,0.04100931495669231,0.04126829993317784,0.04159885885012308,0.04197660418675189,0.04232629866806028,0.04254868940361187,0.04266971323459593,0.042863116031910106,0.04308655260484487,0.04329755674003776,0.043465066914385224,0.043630851302855794,0.04385032115428228,0.0440143904301728,0.044116661587557046,0.04427995612315254,0.04455101115042181,0.04480503062214834,0.044971809512166755,0.04500453836683871,0.04509716152849881,0.045218978873172146,0.045456445518209855,0.045691671225799146,0.04591040316847957,0.046087733615836096,0.046254079876147346,0.046398039180393646,0.046476766997294736,0.04652611859558251,0.046593018806306695,0.046646928755045086,0.04670855399976487,0.04675021766545565,0.04683771404547239,0.04691425237501497,0.04702478790373154,0.04711052217408114
-0.011098607058684908,-0.011098607058684908,-0.011098607058684908,-0.011098607058684908,-0.011098607058684908,-0.011098607058684908,-0.011098607058684908,-0.011098607058684908,-0.011098607058684908,-0.011098607058684908,-0.011098607058684908,-0.011098607058684908,-0.011098607058684908,-0.011098607058684908,-0.011098607058684908,-0.011098607058684908,0.11260092594533438,0.23630045894935364,0.18346118205782527,-0.05653983190488744,-0.24132961509587922,-0.2161393879656673,-0.1120673495143732,-0.05489608414465674,-0.026147209448916908,-0.00964035868494286,0.0007410775726400975,0.007868456085525449,0.013186118045073613,0.017380608821609675,0.020742585320264083,0.023458617617951098,0.0257423537407318,0.027569586886703003,0.029095165946016247,0.03047889365711012,0.031776080998667015,0.03299519448399304,0.03392451847624471,0.03456966239410142,0.03505204876492608,0.035498290125478,0.035874914577652184,0.03609121966468214,0.03626588860998962,0.03650240487827049,0.03676573670563635,0.03699615857108858,0.037135188161437925,0.03724127324293385,0.03730595089648232,0.03750011180347819,0.03777312933799465,0.03797651140927632,0.03815688496006901,0.03833492011745085,0.038559372416780355,0.038749697853587214,0.038885234356964074,0.03902779557849208,0.039049444552203556,0.0389826362645262,0.03887895140939596,0.03880112492443868,0.038754395137059854,0.03861748789463415,0.038515820255591096,0.03848773548256687,0.03858354685384153,0.038667410011446995,0.03876143029238879,0.03887970310847818,0.0390177871338754,0.03905103526115511,0.03907251347865859,0.03906033612087647,0.03922213516524989,0.03936110551949311,0.039488015250480554,0.03942767156297394,0.03939712512545752,0.03938978564268819,0.03948660951358723,0.03952828585306289,0.039661813683697575,0.03981961988670848,0.03999232236502512,0.04002739808165333,0.04006827439644905,0.040238653785300386,0.040473745220897174,0.04066151423157468,0.04075227829826417,0.04090638087062794,0.04098694357409192,0.04100845155978668,0.04092336455567916,0.04082738581514867,0.040863660604573984,0.04104634177490563,0.04137468949047316,0.041615617128393956,0.04189228222566559,0.04225403417171936,0.042655804356642985,0.042911751916826106,0.043019498644470265,0.043222570004812014,0.043489656711952054,0.0437846025366089,0.04395761271779139,0.044218133302182674,0.04445539190856656,0.044708359962913787,0.04484598857076195,0.04498928804470878,0.045189011631500124,0.045376742934098255,0.045540219176723545,0.0456007321789416,0.0456721008758941,0.04582661727937389,0.04607048135112543,0.04631219967672032,0.04646700121139154,0.046618969092893724,0.04680601286516959,0.04702275146916531,0.04712831761813517,0.04719110561464652,0.04724135749251796,0.047305499712747306,0.047343521126944656,0.04738152762753957,0.04750149501176282,0.04759512897938387,0.04771653637183961,0.047806534613231685
-0.011098607058684908,-0.011098607058684908,-0.011098607058684908,-0.011098607058684908,-0.011098607058684908,-0.011098607058684908,-0.011098607058684908,-0.011098607058684908,-0.011098607058684908,-0.011098607058684908,-0.011098607058684908,-0.011098607058684908,-0.011098607058684908,-0.011098607058684908,-0.011098607058684908,-0.011098607058684908,0.10625970830555014,0.2299592413095694,0.2570731942266597,0.02341339790373128,-0.16606357053313386,-0.2233771887020423,-0.12087457547411588,-0.05965161865603416,-0.028638310040467116,-0.010590860967415688,0.00044648227023372407,0.0077981267647103366,0.013175200437981904,0.017504671886530314,0.021079836229078726,0.023912447732780475,0.02622921626786979,0.028117509621836817,0.02969380859595217,0.031008629993781123,0.032219678587288275,0.03336653982057834,0.03434340019728495,0.03505771732221772,0.0355294775281143,0.035862443661835164,0.03617545976610545,0.0364012154601942,0.03659694151016832,0.03675261346789611,0.03692310690318541,0.03710594657868823,0.03722398557390042,0.037310606822152315,0.037341642730987445,0.037469867876156276,0.03765971110517125,0.037798725375532825,0.03791361060802041,0.03800921605020591,0.03815018318766868,0.038264011074655185,0.038435025068064496,0.038630474914833644,0.038758713338902705,0.03878910862588891,0.03879864841299305,0.03880094557499531,0.0388521509499898,0.03882809711372654,0.0388523440371208,0.038823880700334816,0.03879228147952521,0.0387337178539282,0.03877077676885159,0.03891494999062481,0.039095284485042285,0.039162316487069526,0.0391529576830444,0.0390820551546145,0.03917433898451705,0.03935337300597987,0.03953056413309715,0.03955867311969511,0.03950380136114233,0.03948935309209635,0.039534433682380944,0.03967792255272444,0.03988545702046612,0.040079831067876236,0.040157325630134286,0.04011757509764681,0.04013580187929486,0.04028349614084936,0.04050428772202994,0.04067253769742564,0.040814709957137554,0.040997905029730025,0.04106727000761777,0.041064142778317686,0.04099330538026781,0.04094645225716952,0.04099176943900963,0.041144662209938676,0.041374437759821796,0.04151286966899772,0.04170949881619572,0.04205806001151325,0.0424813631983828,0.04272829435310549,0.04281830234961124,0.042990607242721114,0.04326044046789094,0.04357630644205323,0.043756542876274375,0.04396166388695278,0.044102044986072134,0.04432138647541107,0.04449296357351565,0.04468631604267964,0.044861554378148545,0.04501378462146153,0.04523826806208514,0.04545795329447848,0.04564842794154263,0.04580608426901397,0.045981463886189504,0.04621732969211701,0.04637675284241919,0.04650180675138692,0.046617188708468434,0.04681083571776006,0.04693816659503022,0.04698934430523208,0.04700533143109843,0.04702910612164781,0.04705309021616766,0.047104839712940924,0.047246761554423915,0.047312908452071534,0.04734866215696016,0.04731653386106901
