0.07020839812477815,0.07180945006957636,0.07502349789023077,0.07855215216277686,0.0782519194927526,0.0765309627329558,0.07017180812588236,0.06394358219957534,0.05488790080141156,0.04989369628044651,0.046898260237107775,0.04820742840415623,0.05130999069922142,0.05420924347781151,0.05663002978573008,0.058305816728195216,0.06070011328958675,0.06226210548982505,0.06396031081473764,0.06449730797309661,0.06519603119070966,0.06521155851349453,0.06651570590103544,0.0676638534293921,0.06764230851751532,0.06706477442995935,0.06720995706489286,0.06802759893426089,0.0691815499858219,0.07099477935889231,0.07304801960811064,0.07228772625107627,0.06806744553750015,0.06300223783165271,0.06137885713210381,0.06196625266164188,0.06315828976128804,0.062467772537710235,0.06024119051614966,0.05773219354171941,0.055091164417659336,0.05458499961531804,0.05554778845533516,0.058254744834193684,0.060001230423788826,0.06047762431551845,0.060054163243450365,0.061079400136405136,0.06239096287454675,0.0638284692710806,0.06540225876967551,0.06768876200880877,0.07030670707568043,0.07095207454128816,0.07111066818492567,0.07162266558834449,0.07234900023090153,0.07282595414493036,0.0722198279070909,0.07121847908012625,0.06947446732934454,0.06788889653064793,0.0688668277674572,0.07221693544209429,0.07549220357740437,0.07691979299715061,0.07794646031441815,0.08048790160640998,0.08420772503104122,0.08621249434221574,0.08593163378384286,0.08274284828563094,0.07933110995903532,0.07749462445128266,0.07817538290340244,0.08019695992401818,0.08195070276937527,0.08392283997427401,0.08603597360994954,0.08784119865110865,0.08863925306868287,0.08985437222911144,0.09149162430083765,0.0930713044926961,0.09332703220559133,0.09275094690709401,0.0927980504621187,0.0939786166364419,0.09616227522707138,0.09854641585641069,0.10018110807397282,0.10085672952365816,0.09961876185743486,0.0985183316471388,0.09746748460776934,0.09681811308472621,0.09597850083275597,0.09586754044421815,0.09590876273915293,0.09471342198629254,0.09339233227704646,0.09354185287664965,0.09514209005486686,0.09639097463109095,0.09516230512870777,0.09202286976600793,0.08749853564360152,0.08437428825590132,0.08317512048934492,0.0834220047361123,0.08314974236551428,0.08353737392222886,0.08473818136349093,0.08693126917283764,0.08808407799156363,0.08910044264404204,0.09309372515768809,0.10163067438973164,0.1080440446894265,0.11121278844829634,0.11062409771023003,0.1108759053758212,0.1092813211699139,0.10691760203499014,0.105395415847461,0.10640863675915996,0.10717609836020206,0.10767898738293194,0.10692025849996026,0.10617761345924792,0.10552470262638675,0.10382021745375762,0.10182168163258784,0.09838927123391839,0.09434084535124089,0.09037129257577221,0.08775507602745033,0.08558569936975136,0.08225341808759273,0.07789158240238436
0.07186767128796041,0.07513770394077984,0.07952435435964292,0.08319867591460156,0.08104570381734846,0.07519814575836761,0.06798988260991176,0.06318830416676414,0.05813159019268794,0.055379445826626975,0.053480759788255165,0.05508020976778448,0.057580978997675766,0.05983662111768524,0.06120110782697559,0.06306154681893471,0.06571586028026552,0.06743108369636262,0.06774520140274508,0.06689148192489218,0.06669054017292375,0.06623892158585588,0.06722529593266652,0.06787856766112345,0.06834956520728241,0.06800112316125553,0.06812040334693566,0.06843120466237497,0.0688430771990979,0.06966145381852111,0.07028534955870364,0.06898850409414141,0.06582329960127363,0.06131980983980454,0.06036310563446479,0.061384099264685854,0.0640104424699295,0.0643902720138941,0.06222307615332261,0.05939936013954458,0.05742873288057918,0.05846590415423177,0.06118596811774263,0.0646707670527472,0.06589062820419313,0.06499164275434324,0.06318170925127012,0.06401684703296383,0.06604236315409491,0.06776167268376858,0.06892511865303921,0.07102280018362389,0.07352318254720792,0.07433798598486778,0.07439169517440287,0.07475288325957648,0.07594094866275641,0.07689142661587862,0.0775762592604226,0.07645497734405268,0.07358823213827106,0.0702897715920544,0.07023861812858967,0.07286973208310144,0.07577604680698141,0.07687756292399306,0.07807841501045043,0.08025612830376423,0.08265894887173462,0.081010021577932,0.07715700605735692,0.07315379250031324,0.07266223793817812,0.07425981398783771,0.0771344650668388,0.08072880331123843,0.08398091135567849,0.08704175807709832,0.08927765019469075,0.09093755680777434,0.09175557934155702,0.0924600966354671,0.09322715960605957,0.09309259227230701,0.09254242627583072,0.09179982763264873,0.09291161973030755,0.09494202883246523,0.09678470692883197,0.09818662668333478,0.09893015370764821,0.0997993880265267,0.09971529760485073,0.0993766629346886,0.09885480792080602,0.09829766180312173,0.09792006925939317,0.09768790712288025,0.09692843494632669,0.09546933169663416,0.09498239934663173,0.095851581352595,0.0963329347760009,0.09420522126756431,0.08946313584820524,0.0849542505114417,0.08249026146029441,0.08249893313766866,0.08368162661683468,0.0847262528979755,0.08513922796853576,0.08572295110902307,0.08657530879785505,0.0882599908038628,0.09065536367840116,0.09348889587810348,0.09773996024944527,0.10299817285209456,0.10531903655025386,0.10712752275421245,0.10670173584543026,0.10616712362044882,0.10272777785715248,0.09966551701105072,0.09887015688492388,0.09966419433840291,0.10008137898364368,0.10183158913308742,0.10283031092545179,0.1033952895741186,0.10174959408312617,0.09919297611853103,0.09704808786981134,0.09426878145100492,0.09123772100382205,0.08741982127457039,0.08377753085964278,0.07998543447596448,0.07583037897911142,0.07255571743374979
0.06680423089779412,0.06539444039187287,0.06568320062538308,0.06686975533790356,0.0635827346006122,0.05819753819720074,0.054835472444182,0.05475031649743301,0.05573661414434179,0.05659121338692286,0.05655573543033139,0.05824720176809522,0.05992173531907217,0.06235010123916707,0.06413577680958157,0.06591137654630512,0.06767726582223874,0.06802110727828779,0.06728778619868073,0.0658470064650266,0.0657157653104438,0.06535160958776644,0.0656636801289227,0.06592613988092287,0.06694776236989029,0.06818066093553622,0.0695460005565515,0.07076139980491437,0.07185388746835768,0.07286410329098354,0.0712769405378377,0.06737957529690852,0.06320199937410079,0.06042152380550525,0.06169834406634219,0.06339018777504268,0.06596718474444792,0.06589995808465793,0.0633826799074414,0.06061419641038376,0.05918774069335335,0.06045219603103529,0.06308508256534301,0.06636174959652212,0.06767374545411836,0.06674643220410699,0.06378492293675642,0.06354278917702219,0.064898444784723,0.06790218531540984,0.0703287769478942,0.07262499245216662,0.07412634131741384,0.07465481347994728,0.07548019037662576,0.07624548386210722,0.07716769430884265,0.07750629872190444,0.07804608526055104,0.07694285793871933,0.07420805761377353,0.07119591377117138,0.07092725074799225,0.07348698126455536,0.07665149035731285,0.07831660208020888,0.07878632050842818,0.07888073983626424,0.07945941987721082,0.07789563770771189,0.07499762205543317,0.07224726171875104,0.0725340561060087,0.07460459776649842,0.07742452167358749,0.08165244295363243,0.08621473473118062,0.09082406140745253,0.09332304845091104,0.0945601490520143,0.09524746823114812,0.09543650675659508,0.09649959572604641,0.09675145538107942,0.0967667949366179,0.09605456471878643,0.09629312457661632,0.09698911727268501,0.09758807376546826,0.09808651623481421,0.09924140640334965,0.100113765354475,0.09997594071317796,0.0996475340009907,0.09963241666491157,0.0992853943783037,0.09855794808454901,0.09777094541869763,0.09745002654242621,0.09643690975553629,0.09588523123271701,0.09559725875695146,0.0947984001362528,0.09170392974031126,0.08678980077314206,0.0835212029767972,0.08335655996233352,0.0851628236608378,0.08694966322544398,0.08819440184831236,0.0897034050468269,0.09106013417347081,0.09194476853925627,0.09253733432675246,0.09403594729241246,0.09737899223754708,0.10354915147512576,0.10912142340915461,0.11188554762848564,0.11325304987962649,0.1129657086371033,0.11169356350622943,0.10888325336642254,0.10776531547418657,0.1080491484409878,0.10721008116529972,0.10617755548398604,0.10721395339843957,0.10862611015451167,0.10836829004647444,0.10435247945129215,0.09931605065236887,0.09583240067328731,0.09457865835287627,0.09390793239072234,0.09188753774503208,0.08787826690575706,0.08297838373090607,0.07803302469437856,0.07494768341239116
0.0651385414023638,0.06257532295511681,0.060662296268056026,0.05760239567142281,0.05208608065549894,0.04817623708503892,0.048849234809530684,0.05217454982847386,0.05718065354648257,0.062026983959686935,0.06369803687029799,0.06342688283526986,0.06264784226160794,0.06395181750077757,0.06550549636828089,0.06643684196082213,0.06688977223050628,0.06686641494409698,0.06686399943074373,0.06731086840657702,0.0678072090864025,0.06789992064296162,0.06767439290513916,0.06845850058054603,0.0692861563600152,0.07002576605402694,0.069991525024692,0.0706575735192256,0.0717594743500906,0.07275394275364344,0.07098398799631447,0.06760544912947361,0.06497013873370101,0.0647871469458123,0.06788332467713165,0.07047865203684194,0.07197822187986422,0.07144190918702459,0.07011923852738275,0.06954810482968482,0.06957626482625168,0.07031809088526231,0.07109586702504704,0.07250577375467708,0.07384249095212629,0.07390430381003005,0.07215598992219807,0.07172653603333437,0.07261946607692474,0.07403128319649858,0.07525547310485763,0.07706309811790164,0.07930540802718361,0.07979209156983649,0.08058538565240903,0.08219464178690072,0.08512375318483249,0.08749408194143152,0.08822980793205917,0.0859089378396014,0.08082143337420523,0.0758168822312129,0.07381840447599237,0.07382725882485751,0.0750013216481704,0.07624851534003843,0.0786694215305534,0.08097906802436997,0.08302902404321183,0.08366637999422004,0.08265795359116163,0.08146522782531589,0.08222253814747685,0.08450275299383289,0.08732687069568766,0.09058261472744981,0.09403096020646737,0.09754206041026622,0.09895447777022012,0.09901703119275537,0.09865354923402572,0.0978925120740524,0.098073369038392,0.09799930880925535,0.09910735457600951,0.10056856469115188,0.10202782118555308,0.10205590250209504,0.10114441385786213,0.09962769160858584,0.09818109516235896,0.09627531667689238,0.09502947604792164,0.0948370573387047,0.09573707789220712,0.09611114331194846,0.09641627349938207,0.0967378345239487,0.09763470503245862,0.09763785349716492,0.09744660519770561,0.09604070152755365,0.09302044588508836,0.08856236422728767,0.08434213243791547,0.08427572690021803,0.08652882448561477,0.0892754863698731,0.08990810972913044,0.0895133978536284,0.09019244178075586,0.09208909672106154,0.09484998123677238,0.09778256297194991,0.10123067436696463,0.10450552461557,0.1069369053135436,0.10634769005475665,0.10625078519330447,0.10765795609014285,0.10935467635052074,0.10974474585051237,0.10919037650744252,0.10993398455016827,0.10921617886078427,0.10684177362673823,0.10477791321764528,0.10428974733859266,0.10283018996634437,0.09924318139000865,0.09353531355864639,0.08833049477539694,0.08412626382750418,0.08263182138267,0.0839483590654039,0.08606608173289529,0.08539344145864725,0.0812094324464123,0.07502750143184056,0.0705112543760129
0.060606929280029954,0.05811677546006881,0.05724834416754264,0.05512498531075485,0.0521732876956539,0.050950112416629674,0.05253198017403731,0.05519285189251881,0.05829092067946626,0.06096277042322613,0.06120343150410491,0.0609201603430015,0.06172144213897006,0.06492333417122681,0.06771071085619633,0.06819072776371295,0.06704903373908136,0.06549880440593628,0.06533949739907499,0.06621301265700545,0.0666574737667327,0.06642905346386883,0.06607178159628865,0.06787006398719866,0.06934647479590635,0.07092012453326686,0.07128451805177759,0.07260050973024525,0.07460778530051936,0.07664537825461538,0.07607358990106433,0.07340851083979262,0.07130205032025538,0.07200112177252359,0.07528499216112028,0.07720262026310996,0.07733954354232822,0.07657873427278904,0.07626165852329586,0.0763716223871555,0.07546783123379561,0.07361498555692486,0.07190316096774237,0.07112957846632868,0.07125409461980423,0.0708694178448113,0.06946694741196494,0.069441920574169,0.0708538410681766,0.07277086092733095,0.07519104897087522,0.07775353030178762,0.08071816275234048,0.08289707888108588,0.08616664954783733,0.09060793678774867,0.09433208080250302,0.09766975653401919,0.09860395727475149,0.09612732392327028,0.09061002465930726,0.08524355986880428,0.08221587440242832,0.07985825242540329,0.07795088356959623,0.07720369860437798,0.0789487636317916,0.08209005387357445,0.08626529425707563,0.08845283920432719,0.08683273273170507,0.08389896589972982,0.08273940231424347,0.0851245431685421,0.0885424267992319,0.09259908958836433,0.0972362926556195,0.10277914528034343,0.10637925682210014,0.10766049715220921,0.1063918826975687,0.1039644585649122,0.10210236491793313,0.10089911067963621,0.10108501289749096,0.10158747598550799,0.1016320843149794,0.10080128017864665,0.10006468294161736,0.09902533843114679,0.09757208729485733,0.0956212083532187,0.09481220608602661,0.09556001027138802,0.09657708548378996,0.09660567719619466,0.09686577000124466,0.09816054368935333,0.09994780547737131,0.10025523002155606,0.09949062634969141,0.09738225591547445,0.09446105553568938,0.09163025210548181,0.08975741555712642,0.09192641490583113,0.09550164178942303,0.09936401316663353,0.10071601239708586,0.10068276740410753,0.10131466267650287,0.1031074871258957,0.10640446555377944,0.11033745778113341,0.11403612319157064,0.11649285595989362,0.11714081383934853,0.11566274505514923,0.1150090623766575,0.1145968711665608,0.11427819400289896,0.11407350399083191,0.11497763129731543,0.1170642829591905,0.11639707990166286,0.11385885494602331,0.11019820372263436,0.10580756476795362,0.1000044893456053,0.09390965023189565,0.08862304244344968,0.0846090482324838,0.08124161036782826,0.07964004949173512,0.08039680216871521,0.0831085822814511,0.08520939288240248,0.08565588887383876,0.08400354516654719,0.08154947043196094
0.061484265248607665,0.05872774640469515,0.05876468046148342,0.05888714756343146,0.05960854048730453,0.06055784828945604,0.062102559247055086,0.06333551421187748,0.06452592585282088,0.06490895702169244,0.06357582033907146,0.06217633087385344,0.06179763271487818,0.06401082224347758,0.06669501517515343,0.0681413516745886,0.06782449375954516,0.06822630767292569,0.07055128434868482,0.07354986285897581,0.0734429652714987,0.0711620222039271,0.06843610503560477,0.06888845568255661,0.06989583190105998,0.07160220673000463,0.07207328733122662,0.07388139622948497,0.07543894681176681,0.07684303229232929,0.07724498646459686,0.07742409634848774,0.0774342138438117,0.07821501130782119,0.0798557482988334,0.08106276035716087,0.08099852384661611,0.08108479098042067,0.08141644480279049,0.08100587809180543,0.07964825972814203,0.0779068589789702,0.07696279523132717,0.07570003832056957,0.0751055994393495,0.0751031166355769,0.07641460958307489,0.07788290167959078,0.07847401420108749,0.07673364110559168,0.0765428420968324,0.07770202127648161,0.07967410847377396,0.08220387564794449,0.08630541457498278,0.0919341587015222,0.09402292587813256,0.0954707150188338,0.09528225910561769,0.09421020016435053,0.0919545946003619,0.0904941306531544,0.08985263090469937,0.08670636907908214,0.08211609387200042,0.07856390499214644,0.07846689443020544,0.08119238264126878,0.08643275009705141,0.08884719413238225,0.0865803454284874,0.0826277825960748,0.08202349568520054,0.08441297566389626,0.08658976441038382,0.08901503646506703,0.09409141254950228,0.10070728855930848,0.10432039659994327,0.10485604978473323,0.10224658268686464,0.10033827530158138,0.09946117398026859,0.09997337373395712,0.10120389270047508,0.10160253573142625,0.1014077517078285,0.10068959278201442,0.10068481770143059,0.10064314104277094,0.09938738476934271,0.09785864115880846,0.09718148653469601,0.09781483912375513,0.09786151434630788,0.09697829508746153,0.09596243149570244,0.09640489468211011,0.09736560936089478,0.09820213280463048,0.09816367987357191,0.09658619781693581,0.09404125317274206,0.09221700451329684,0.0926766529919123,0.09707877337283127,0.10263490208305454,0.10737794672465635,0.10913249791831432,0.10892034458917726,0.10938317810797119,0.11045048376324315,0.11223296784891283,0.11441493334081736,0.11716370836148245,0.11887570307498478,0.11788129566880522,0.1151466490735576,0.11273461327518002,0.11063615464200344,0.10894707965379888,0.10822929840577232,0.10880712320875822,0.11034985031010025,0.10975410759562877,0.10753161830132033,0.10287864039113717,0.09667145633974406,0.08981319059365454,0.08432231121929468,0.08094628815758206,0.07902025439869827,0.07684270300496526,0.0748810061789887,0.07503953337347755,0.07756809381720325,0.08076112325431062,0.0839835252721671,0.08654496539852383,0.0881810170446557
0.05775326826709245,0.055499772382043656,0.05661963776561227,0.05845283140990946,0.06104192598092789,0.0621552305048186,0.0623220787424001,0.06252436775211309,0.063546327795815,0.06447145211705696,0.06509559000502249,0.06577060634919363,0.06616272388464821,0.06713391189113936,0.0683760522845768,0.0690537213527488,0.06822750983025692,0.06767407931383602,0.06808516636071615,0.06998345890976204,0.07034557676949771,0.07021411934238095,0.06960460987911299,0.06987471080799795,0.06957864068824421,0.06987150682954882,0.07070396305305238,0.07247749604866034,0.07267980785178839,0.07180964192070721,0.07154009682189973,0.07335359173278855,0.07570274254862784,0.07703123376360038,0.07727262011463931,0.07659496884832372,0.07639231379946279,0.07689748093198867,0.07662081282980684,0.0742502913211183,0.07172561620124034,0.07125529403417603,0.07264227374761416,0.07252714813569122,0.07105182005673562,0.07033583875503649,0.07166584638679217,0.07457081213595862,0.07677065562308313,0.07698222394016355,0.07772369544006891,0.07954148217048507,0.08147590751058646,0.08452615153957754,0.08798410387992806,0.09155138564664626,0.09092838447671099,0.09016389297363392,0.08902872443664898,0.08869487609441011,0.08927628896757521,0.08995886491522385,0.09109743290137236,0.08992212943131675,0.08916124854369296,0.0882927706981728,0.08779443742866425,0.08870004413882457,0.0917238306431608,0.09103701643780776,0.08582056198829331,0.07978666024358147,0.07817543268709867,0.08058868992538207,0.0843285235569562,0.08916873484175272,0.09585162715730394,0.10128852405348757,0.10309653843836096,0.1017802750619666,0.09869755405319905,0.09670388552304915,0.09551047952448828,0.09476483567746252,0.09464665620792077,0.09464265386282499,0.09550603419760141,0.09663520148684802,0.09837394266328012,0.09982634595736434,0.1001968783258491,0.09994668641367116,0.09945241451936584,0.09930918111662308,0.09859130907465448,0.0977899855041431,0.09706085717458554,0.09715891458470337,0.09691194641737208,0.0965113787933996,0.09534332059332007,0.09339030507794961,0.09211559266781534,0.09268631491442164,0.09617690503719895,0.10173625874975084,0.10730221647183757,0.1110764295402321,0.11210678291987305,0.11218982647220277,0.11298026511524543,0.1143937780048992,0.11581289118206735,0.11637030866500872,0.11708290464326482,0.11719522256206895,0.11773126851867742,0.11735901646257631,0.11606853800537455,0.11379407359948282,0.11102365033500908,0.10882689565696678,0.10769936476427276,0.10885341086475632,0.10963916101526565,0.10728104586365304,0.10087601186192066,0.09337688741650403,0.08789769681839917,0.0858879226078886,0.08690757134214694,0.08861182966927528,0.08899292726285617,0.08759937713715618,0.08670069259894025,0.08793714137808767,0.09122837403863947,0.0966186481547879,0.10292592977701992,0.10749922622141277
0.05577343945122754,0.05474234474280294,0.05612845947614688,0.058442141807346075,0.061203180165238374,0.06353567500268424,0.06470021026747953,0.06555119779006219,0.0664537708633756,0.0673469498277938,0.06771512270604894,0.06752313507179493,0.06690838265902094,0.06658808014847968,0.06667930513043477,0.06719332648762275,0.06734136777870542,0.06881057279161311,0.06962963509994534,0.07061717654269861,0.07003778768996827,0.07058004384392758,0.07212951861087284,0.07393671698871992,0.07436430830029787,0.0734416208344719,0.07333688609845042,0.07468537745290477,0.0758862607126205,0.07581194261169734,0.07582825555348324,0.07651813971220649,0.07760482235938666,0.07671785531438362,0.07551622964722468,0.07417039364852268,0.07377337877928627,0.07350979038715641,0.07146695715133163,0.06902772789795965,0.06892994476640205,0.07268667681406774,0.07671529548111851,0.0782699382033164,0.07762419221672834,0.07709296196133311,0.0768830841048417,0.0775768214763334,0.07807150699312491,0.07759302461426554,0.07734198880628139,0.07861054457036286,0.08018568951025462,0.08205153063321818,0.0824165350524856,0.0814844325107949,0.07762101152601936,0.07545851656569774,0.07473294792466839,0.07641192331855694,0.07918857003364647,0.0811180941530823,0.0835127860387757,0.08518132938034512,0.08964904022393748,0.09355444741670196,0.09586876989023657,0.09751857816121498,0.09833692953479271,0.09514104860631224,0.08839320138278632,0.08283096294056039,0.08255579600317414,0.08493451083779709,0.08915652668610928,0.09410892358875098,0.09994556398829481,0.10145265083826419,0.09910192566886084,0.09497406711585922,0.09172719836035245,0.09082924007883927,0.09155349551994907,0.09360917560587849,0.09588235430406587,0.0979132064462966,0.09936892845995668,0.09988474405327444,0.10071781702162427,0.10227761491642699,0.10398529148361467,0.10411598831901644,0.10255575454716544,0.10066103365920354,0.09909125728505565,0.0976385096249995,0.09607480396609795,0.09531776416068058,0.09548722372956976,0.09618937807073258,0.0967857076821003,0.09717224116464346,0.0971715772051223,0.09733741410801353,0.09915988727382097,0.10225688856415224,0.10495096844983332,0.10517943049454695,0.1046681175918818,0.10509777980111819,0.10754152400109056,0.11067945376172758,0.1132496841245349,0.11380093611511802,0.11341181621480335,0.11244611121509926,0.1118072996211445,0.11005660072699677,0.1081498059278364,0.10736982698008138,0.10710244447933691,0.10582760748837586,0.10522075757706342,0.10627563300919451,0.10695050802605455,0.10288336365450179,0.09581607268916692,0.08996537942176801,0.08761337088471788,0.08786956324357122,0.09025940703477078,0.09363065934211333,0.09662152612793706,0.09790575405661307,0.09800080789193828,0.09798844862144152,0.09825741044108832,0.10019886062015901,0.10454588292343585,0.10998497384701467
0.057518817517139637,0.05901198469036456,0.06016776277413351,0.06060655159671954,0.06100053692686854,0.062490695329655996,0.06401888814408499,0.0656892721072469,0.06696510273600065,0.06797829676072673,0.06855067371300212,0.06903778372232548,0.07003311772783659,0.07024549488501272,0.06858090105468129,0.06602723865984438,0.06363521526043693,0.06334021018392992,0.06305902737980774,0.06312112374366226,0.06346519151130348,0.06579834070797884,0.07021752630372423,0.0736989710167835,0.07378298744257751,0.07097698433713509,0.06998642381741976,0.0727812595438449,0.0767692518204695,0.07801041276678254,0.07701072908648161,0.07636952231751283,0.07703895497614938,0.0766147335672843,0.07612999435404036,0.07542015448853143,0.0750265814589922,0.07376120654407474,0.07211800310113693,0.07087417581550648,0.07200409885282501,0.07591769835890379,0.07902561030767039,0.07918906977172711,0.07739821672346864,0.0764354091975684,0.07600980922923894,0.0767137383120947,0.07886409177083985,0.08113784590502564,0.08237593102681,0.08427043145237083,0.08684117048090484,0.0900401292022636,0.09067792505970423,0.08743506859924322,0.08226255423424392,0.07805686035831623,0.07690538383341664,0.07739334387750127,0.07855985742345195,0.07822900869324043,0.07999880760630965,0.08405379531985575,0.09217594221243097,0.09863349809328878,0.1024023855338462,0.10451957609690253,0.10281901606824406,0.09705003367074619,0.0902901214762405,0.08843963993496667,0.0913873509572579,0.09535353719964523,0.09903486446546207,0.10160141145824911,0.10273549270799734,0.1001988379391172,0.09737140510524168,0.09480951727593931,0.09393189205603054,0.0934248311691422,0.09332693183238117,0.09355859121510011,0.09402912501040638,0.09430239498813547,0.09472733190709146,0.09434696321349037,0.09391133738340784,0.09352297753789986,0.09527509469054428,0.09872077071395272,0.10176287794672509,0.1030612541030583,0.10300506096550756,0.10196727525584852,0.10114198040708805,0.10065169480035502,0.10013093934549706,0.09795827986851251,0.09575125931039548,0.09590111704251099,0.09724895204962608,0.0983650675396372,0.09840690830107901,0.0988391985710839,0.09932701418907561,0.09892060158061199,0.09923769275768213,0.10116626097303374,0.10505158669695437,0.10958234672167917,0.11264349815200561,0.11322949569908573,0.11232404378092781,0.11165077215940723,0.11196881034305547,0.11130334874323987,0.11020571037841417,0.1106795503825769,0.11132256240591222,0.11133701643681217,0.11140926292024621,0.11271576941787999,0.11323382839056863,0.10960974565964805,0.105031577245878,0.10277251343433531,0.1034824186669068,0.10502310743368432,0.107220966823615,0.1098637668452872,0.1118559850211979,0.11260168173067196,0.11268161862899775,0.11301879418432326,0.11261882762767654,0.11208222510655365,0.1126574479279134,0.11533514873120525
0.0613157829191989,0.06307144504853535,0.06383580148292492,0.06466765364453761,0.06560661593010678,0.0674612086124473,0.06913216884755645,0.07051156882312365,0.0715547080361536,0.07193927880317848,0.07161703601009073,0.07132274907418722,0.07160074491982789,0.07159999625095911,0.07029626021725702,0.06834086680632998,0.0670238974272862,0.06698727831698845,0.06689590541022088,0.06623120317432049,0.06530489717642826,0.06589156925364488,0.06858761302327043,0.0712951558696727,0.07191336361949482,0.07050509422132137,0.0707168134054056,0.07339024480758446,0.07665692889013878,0.07767600922097716,0.07640142354024045,0.07527880279728981,0.07466733707162385,0.07397242504320975,0.07441812570431877,0.07631441942697625,0.0787402887947325,0.08033775372144195,0.08174880508620347,0.08386128127793954,0.08660904001981268,0.08908029056416863,0.09003780782481968,0.09022538532397922,0.09043326304502089,0.09064964369276671,0.08933083977709999,0.08719823085037859,0.08647006288827211,0.08668908315768814,0.08667515007743994,0.08623743561701228,0.08546913664059079,0.0867389552803171,0.0873886308104279,0.08602383522198669,0.08337589387847709,0.08242532037073218,0.08347631340989962,0.08473641357868825,0.08364545420435529,0.08160724563711629,0.08268968498841955,0.08749970817239286,0.09501443197535435,0.0991720647623889,0.1005570605606112,0.10098893553346429,0.09830752735986925,0.09318034029881074,0.08811969807490405,0.08888703716445985,0.09452606542800178,0.09935327466866035,0.10110007523084834,0.10078126402789069,0.10009948665967847,0.0979204067191572,0.09664936642497199,0.09606937107241707,0.0966868525595024,0.09768140693452809,0.09897480074547048,0.10142171552908125,0.10188042835083091,0.10087294810767886,0.09838849956246956,0.09562717606015998,0.0940083784794126,0.09329334586430185,0.09407247005331737,0.0951395568970541,0.09707858921894878,0.09941449054190027,0.10143864163070826,0.10127491533127339,0.10012343630997428,0.09996503957770947,0.10109449651169891,0.10102908738352571,0.09955281108022836,0.09855053697172729,0.09883106152850339,0.10052047761839843,0.10170328391492091,0.10242883415452772,0.10252759881478418,0.10243986614143369,0.10441658040152502,0.1078653697534666,0.11243240857088437,0.1166531952576363,0.11858493448999266,0.11896224990869834,0.11761942966745015,0.11678825316360178,0.11599736841543531,0.1149170523092479,0.11435436898097048,0.11548585606178474,0.11762584365215847,0.11878568508796215,0.1188493685481626,0.11814983227755561,0.11795365763405707,0.11702197347914473,0.11719859188437047,0.11769617697103137,0.11798303882515328,0.11692423593427984,0.11502219619169962,0.11340233303788097,0.11265884368491236,0.11382234570446145,0.11601961301597595,0.117958034282429,0.11750927143796251,0.11578147277047686,0.11457489284937555,0.11609559031073617
0.06804937152707058,0.06977406899747111,0.06900283571410797,0.06804613250913032,0.06780662344748802,0.06905932391814056,0.07000142876495999,0.07052771664160466,0.07115162037117669,0.07167267779016452,0.07164413661582061,0.07185591398682517,0.07212646881230086,0.07128429979078911,0.0689181967445866,0.06581112461368105,0.06389547615207941,0.06318105605480245,0.0644445335986297,0.06673675346930107,0.06879355763742505,0.06928836665742868,0.06926519595099861,0.06831612860454844,0.06645947994530862,0.06530522333510383,0.06681068819621014,0.07006490749849995,0.07011959469901258,0.0674211118631762,0.06418735080105546,0.06513707539184062,0.06669014989344606,0.06816927317186343,0.0692213762008158,0.07141501258962855,0.07637293401025816,0.08261828117924841,0.08986708197226895,0.09557395335115423,0.09998895351930856,0.10248077621153515,0.10156880206692714,0.10001765604777285,0.10054008113004305,0.10362817359946488,0.10528150121781654,0.10404750037806117,0.10138807784328074,0.09915288117498443,0.09767922038765567,0.09629120614839101,0.09341307440754469,0.09142729045044298,0.09043008756797602,0.09062630298788577,0.09235784824759818,0.09482522566038926,0.09806793704837563,0.10059842639362211,0.10055146276633894,0.09895600515492836,0.09894788646027665,0.10193800214629442,0.10662765957354425,0.10801475502788288,0.10759002367581663,0.10586817712532232,0.10205752556563039,0.09775192421336756,0.09576313383537696,0.09822882988695038,0.10261858543203692,0.10511097212664901,0.10371192724011714,0.10052074757932522,0.09788630043916964,0.09660984832079253,0.09666631882612553,0.09764425342922108,0.10005329621591484,0.10313515932821468,0.10542107403478054,0.10641271695034599,0.10480415582807538,0.10192313395850955,0.0990998391282136,0.09687820189410733,0.09562775353363309,0.09380140221451709,0.09346095555203694,0.09454079443057234,0.09737202414922223,0.10063794903118757,0.10341125183367639,0.10407372071550547,0.1024437435773464,0.10049256431194382,0.0997021879752899,0.10009720859163886,0.09963199315482221,0.09896409597448326,0.09880255393079018,0.10073976446918788,0.1032131823413054,0.10490043768235413,0.10622947429836777,0.10833358305326014,0.11267133791094616,0.11727755881753758,0.12059251579793019,0.12251888329170686,0.1224678433411173,0.12259392051945732,0.12267308663954131,0.12382357701019497,0.1252329142700008,0.12612950105993315,0.12680759952128717,0.12678508041613906,0.12757076100752238,0.12775479043382518,0.12637434683350174,0.12475982116808046,0.12571942053105528,0.12961533797074323,0.13336723802793907,0.13392675889566388,0.13222091309254608,0.12990963544162865,0.12832907533825255,0.12570549318508736,0.12208223840632398,0.11936961482641789,0.1191694227568906,0.12047692800303397,0.12102011305295174,0.12058384662313512,0.11869564592266728,0.11729788713948174
0.07128250197060174,0.07349647869156783,0.0730754373134263,0.07214753075226021,0.07193244470825093,0.0729779504422527,0.07360157536835125,0.07367332624680231,0.07399046294940029,0.07488425835033583,0.07488874967405577,0.07471234828044762,0.07400018623634808,0.07275196186453203,0.07079506675322371,0.06875144574153852,0.06804631900450991,0.0679564831558688,0.06888014023424809,0.07026786307660265,0.07175309881626293,0.07162534962071176,0.07086477375374192,0.0692894677505058,0.06800523893903741,0.06784562435089311,0.0691273385740315,0.06908345973134107,0.0646524669618909,0.05964279102492175,0.057422711759020306,0.0602726898421003,0.06280197464112587,0.06466214664935428,0.0657495973719944,0.06936568466092692,0.07741693069193784,0.08995820625127446,0.10379850735060724,0.11500745801802836,0.12213182110710374,0.12453693346573819,0.12287337784622747,0.12106731604078355,0.120813991609209,0.12229830879469251,0.12158927233103295,0.11771666404717787,0.11044434011559325,0.10312085043981169,0.09948764780889448,0.09806859051432516,0.09582924488478257,0.09257691365389646,0.0899921533012566,0.08967809000283754,0.09194263314848872,0.09659559774467964,0.1017827827493984,0.10562084253906959,0.10588193303212376,0.10494657081159002,0.10511724744758055,0.10752276736041319,0.11089096217855622,0.11166845789980767,0.11222605326925379,0.11130772744944342,0.1083582078777569,0.10420699261440466,0.1008144472795447,0.09993956132268843,0.10076822028978163,0.10233717420262779,0.10337172724722682,0.10359454946085644,0.10299780691299343,0.10241753172247539,0.10186016417311913,0.10122718703169603,0.10211432510067119,0.10439393639664551,0.10646158259316241,0.10738559075337961,0.10691004492687498,0.10810852488941013,0.10916826959745671,0.10895549002506819,0.10780214057660951,0.10603899631232053,0.10457331732724934,0.1024084453048626,0.10044110543220168,0.09998373798109357,0.10147036165851277,0.10259992618749311,0.10282858406752918,0.10294269016840767,0.10500294888771064,0.10829765565717096,0.10989490264388023,0.10866103729224273,0.10649257152937523,0.10686588783388223,0.10996330147678722,0.11296121699842096,0.11359853667985291,0.11434713500430116,0.11746973900905394,0.12206383739402152,0.12523881451139296,0.1271415007960586,0.1284904008310646,0.13016345773917265,0.1309347878575597,0.13135814416543362,0.13216213423949527,0.13388548603975534,0.13603744877549273,0.13758906573923926,0.13894532290449702,0.1383014796063849,0.13493693005616547,0.13204639806433852,0.13314201820408303,0.13777311577042442,0.1402442812489801,0.13806916226138294,0.13381927437623417,0.12972422861232444,0.12794953859587144,0.1267845636247127,0.12635625654020494,0.12584083077387137,0.12563972042144664,0.12503324899044885,0.12323417219757517,0.12136529990363634,0.11946206663328239,0.11821337510596158
0.07073463192237825,0.07248595131286086,0.07182967695090631,0.07106248671513185,0.07045587475216057,0.07063763375209073,0.07081588273898694,0.07009298301891576,0.06953180334082867,0.06944825479851022,0.06978042183623712,0.0708066639999237,0.07145946972639479,0.07122730573723554,0.06890399082684168,0.06650112664898117,0.06559735812702576,0.06736091988126823,0.07059793366098233,0.07389689077188398,0.07616114842899953,0.07552197690172055,0.07396443618001411,0.07183277849186138,0.06995682851227458,0.06902015537567482,0.06974371599982374,0.07085381199399514,0.06795332421861004,0.06416886563671861,0.061684600363535354,0.0643407134392342,0.06758585748696498,0.07153585145089005,0.07513913885209436,0.07976111612051373,0.08695581815583442,0.09766868586765845,0.10959052750881028,0.11917060065812185,0.1254056266702914,0.12831667927108079,0.12739472745854413,0.12483760699913451,0.12272576999053314,0.12327190570057958,0.123499065874807,0.12029322189125612,0.1108511358936433,0.10124345249418656,0.09687447255577523,0.09864366845860975,0.10124572334871923,0.10177294887515823,0.10004452937901157,0.09660708105035151,0.09380644560797301,0.09345272146022914,0.09616729117886232,0.09889309497848993,0.09998345571366844,0.10043567403433813,0.10257989502748156,0.10744384096378162,0.1147278804681365,0.12005356883830388,0.1234662387443576,0.12222803667979047,0.11871193587269131,0.11444080153396934,0.11091278312535352,0.1081717633873,0.10581990178905316,0.10488496552045518,0.1063988639642825,0.10925575113514904,0.11149236917789772,0.11342064896586251,0.1146978591883977,0.11557056234552512,0.11646701666899997,0.1172518807006509,0.11716796822928241,0.11541005120954889,0.11441163793647734,0.11502792271341808,0.11621003325760985,0.11556224605601778,0.11396585794223674,0.11224656669826866,0.11175309869181829,0.11157929366645879,0.11059049475867769,0.10970927914384951,0.11005500291720045,0.11065245597343588,0.11085347719647326,0.11071467387396382,0.11148170192076731,0.11327744251640849,0.11403654923533119,0.11410159398412839,0.11370702493090569,0.11452894884098225,0.11644995713113132,0.11768756095799851,0.11821220418499523,0.11942758707636546,0.12243678200345808,0.12612836436296013,0.12891182478825575,0.1311563850195504,0.13358541258276596,0.13608035766751786,0.13847061495736174,0.14032210788894947,0.14182653353289482,0.14291233404414097,0.14370820792598862,0.14372857660940305,0.1433010213130066,0.1420288228544744,0.13975406489140474,0.13880418217038362,0.14054669797754393,0.1442519263048326,0.14506592608271102,0.1421737478055204,0.13779056154870017,0.13349574704373382,0.13129232208670324,0.13089342980902616,0.13239598789628088,0.13290499809649767,0.13223810580401185,0.13058455743175393,0.12881783400181246,0.12614644189817442,0.12347387215923526,0.12134179051523003
0.07157683036208345,0.07240890857003619,0.07205034774172527,0.07287468582751774,0.0744048261332577,0.0757201029128753,0.07693400857222096,0.07646716459909575,0.07636975614405153,0.07592863837070692,0.07625238116915231,0.07688568901824401,0.07739226224131981,0.07680603907666797,0.07561520007111787,0.0760475386986951,0.0779409370107962,0.08012467230815322,0.0807044454844229,0.07984434544328929,0.07765191197370898,0.07508046663693577,0.07376197711373725,0.07315937809664233,0.0719959476149846,0.07062561790645508,0.07169550384280306,0.07390662452068679,0.07380939433836235,0.07304050218147498,0.0722164411291652,0.07477226616237702,0.07849546210677459,0.08494063871955465,0.09316481131682364,0.10086478654024228,0.10614873570821187,0.10925026701513885,0.11254902312085927,0.1162382003433521,0.11972453145571893,0.12151310250657286,0.12215645449712488,0.12124183335660442,0.11879019011718504,0.1175174093411137,0.11725021136321351,0.11481607541241945,0.10514084998491703,0.0952329168768987,0.09360885779868905,0.0988134404589828,0.10434384956906459,0.10521290140169642,0.10244184865943683,0.09661327682415546,0.09003706233474112,0.0863307934768375,0.08581932012927003,0.08620118854376597,0.08717120995792736,0.08951419776630856,0.09304565511066465,0.0981531239613559,0.10513407276788896,0.11010944117366757,0.11207263437229678,0.10985146023179193,0.1080230916364514,0.10795095067039472,0.10813427989754942,0.10829001807806375,0.10710667837884523,0.10660617462451787,0.10766065351300105,0.11015973763896612,0.1130575771003416,0.11549407992677319,0.117419089300239,0.11733836388690631,0.1170961314615006,0.11751449957062449,0.11857842280030938,0.11897349031410179,0.11961522013632883,0.12068870238300121,0.12081891013544314,0.11830703118910273,0.11493590294082336,0.11236625114046854,0.1113171566801978,0.1110489560807208,0.11036897482012276,0.11028600755727916,0.11114352853427933,0.11329310328400659,0.11630834762498565,0.11906568821174164,0.12012537469623324,0.11868519392802554,0.11721509781154842,0.11827020267385277,0.12191494271236489,0.12546664011554307,0.12728710961814227,0.1276029991818664,0.12810124893460012,0.12922139119801243,0.13044092525288237,0.1318788869598226,0.13367279627090206,0.13633133407022008,0.13898283006931436,0.1412886116156159,0.14295065078216787,0.1438930404368106,0.14464106839483265,0.14543053960811358,0.1464181820923261,0.14761612567560092,0.14778664168538186,0.14690835663276727,0.1450677152770274,0.14432986088273284,0.14468630820055034,0.14473650166837881,0.1422653493017812,0.13847158557619427,0.13367007369655226,0.1288923035018335,0.12540814352962637,0.12557177190572735,0.12957316456439097,0.13334596678118255,0.13542938223424544,0.1355507575925943,0.13503112994772923,0.13321096140415906,0.1311310007117551,0.12974727079546325
0.0714301753577385,0.07067903202297579,0.07060133343599707,0.07228898618859708,0.07401011263968406,0.07448613660257009,0.07448906242350113,0.07304512484242325,0.07255046853160449,0.07107615277535104,0.07108916405365458,0.07138627262112289,0.0725826985451662,0.07216106683332833,0.0716224057736381,0.07297376397049246,0.07649124477917053,0.08054196634010401,0.08324037867500325,0.0846593874357835,0.08355354070395195,0.08145181725722107,0.0792013844050069,0.07786633749322129,0.07590306873874736,0.0743861774069145,0.07628550478671164,0.08022071223236317,0.08320544884210816,0.08585254773055348,0.08775868824184341,0.09221404608154893,0.09702496364162988,0.1043836591876167,0.11170102212014119,0.1142254064089738,0.11061410286406274,0.10235373999090312,0.0953879631289623,0.09171890142492284,0.09062896560736299,0.09042847637973062,0.09054906535356601,0.08957693409104779,0.08824903662167233,0.08888726027217692,0.09208762459692413,0.09573068576548427,0.0943062324520925,0.09458137483581078,0.1002284306070793,0.10603492424924081,0.10729207668705676,0.10267080014861459,0.09819116971801214,0.09380350535352802,0.08947749328319497,0.08819475670184763,0.08912406569096971,0.09048408981981618,0.09170900025916172,0.09411808438710755,0.09785367850510576,0.10393625050798716,0.11062188198116053,0.11422602820001551,0.11424828282213287,0.11255781350986178,0.11381445429034293,0.11631430214675931,0.11816609207774122,0.11853583721619912,0.11730057404156183,0.11585691464742734,0.1163999480217568,0.11911691946265525,0.12302398378439397,0.12520491607500772,0.12685512497429696,0.12692742450244732,0.12699988267146226,0.12692381806896796,0.1271783836407634,0.12702501418701265,0.12631396789184943,0.12441513772052509,0.12190717542958399,0.11898545984420561,0.11734433270491058,0.11698862035187932,0.11749436282760556,0.11757062192172538,0.11743655363069161,0.11783273320785295,0.11868709415300426,0.11991287561123284,0.12075086951654712,0.12147542948259257,0.12104274904324074,0.11944475927258318,0.11893437092969761,0.1214039130926813,0.12616179500343697,0.1300940620783657,0.13196054260736845,0.13289817435692286,0.1349890487514949,0.13695885368776398,0.13786509478705475,0.13859476222041156,0.1398508609784418,0.1424615369338244,0.1446197368705992,0.14667849723039758,0.1482816767566972,0.1491196797865057,0.149217649167832,0.14856193177599092,0.14791021682303565,0.14711487400707499,0.14613917048401842,0.14542068139388006,0.14531477509821308,0.14555067430874105,0.1450098639887906,0.1435531975286589,0.14026824261107915,0.13698542348654547,0.13272725163170948,0.1293416365813715,0.1265614322128149,0.12659801232221324,0.12989633829727598,0.13371829355209766,0.13633780128220632,0.13769040423629914,0.13949853465116316,0.14010883565312943,0.1387095462700016,0.1368882855664286
0.07635367311355762,0.07555068110770545,0.07523922278635094,0.07630365610549904,0.07789182307775541,0.0800508897440601,0.08232178466143604,0.08316010756085002,0.08303762364268567,0.08131222768886963,0.08054695469979453,0.07953371648043149,0.07863357129606881,0.07634871365011335,0.07456642791876149,0.07528064723834693,0.0773297583085895,0.0785541111195246,0.07775556496207515,0.07685673980933344,0.07588732086296411,0.07665032114456356,0.07800958623535428,0.08033619625872424,0.0822266224092748,0.0844491806952284,0.08762655377768969,0.09005900391404524,0.09279393450046648,0.09771090103190609,0.10407487095058808,0.1110008951734191,0.11479076353279513,0.1172127265392663,0.11757057212696537,0.1138775295237939,0.1063579003281929,0.09631768549555249,0.0894787770371857,0.08579253029443665,0.08259363389125791,0.07891931901760825,0.07631237530209511,0.07563044599565188,0.07577898921304761,0.07710798244777742,0.07982167874325438,0.08390226148368243,0.08804633975997603,0.09606050175790543,0.10610999179153532,0.1083417990142169,0.10399056511838684,0.09560780204697622,0.09221952789528,0.0911861502379361,0.0922313713797652,0.09549913072730877,0.09931379875183202,0.1026546771205786,0.10561452777542549,0.10759510182588995,0.10756913253210314,0.10813166870842947,0.10791000295147223,0.10700271762125224,0.10519504649569125,0.10600734547527856,0.10940620297260231,0.1118972117075355,0.11287888466914492,0.11321737264296917,0.11384695339715066,0.1147966685289573,0.11642598081128082,0.11740751387080305,0.1181815213141452,0.11803119013611447,0.11916819142719981,0.11947940090238689,0.1202328501502806,0.12085377896657792,0.1217076997110311,0.12249685486791617,0.12211404415327438,0.12086346143206508,0.11898353577834116,0.1177043095458602,0.1172392374449612,0.1174022784779106,0.11812808320318866,0.1187971336548698,0.1191386495798363,0.11926453423424337,0.11991003663129916,0.12099677005190676,0.12223722510761999,0.1233053309654943,0.12407722615252385,0.12448667872164079,0.12631227545495324,0.1300992180486039,0.13456330386496054,0.1369931806718987,0.13722946042584655,0.13740230080320373,0.13860713330347915,0.14009953055615404,0.14105459425346328,0.1423111105572514,0.143306392636653,0.1447521442155729,0.1457574978657907,0.14709727819621476,0.14792387411322486,0.14819921871717068,0.1481486774854242,0.14811806418189527,0.14841714488019403,0.1485418825834384,0.14818639361270383,0.14703656793601227,0.1458354560982499,0.14463524399943575,0.14251496367123823,0.13892323549427255,0.1339112155429896,0.13012023663387576,0.12696162424514235,0.12519690809552783,0.12420629135448329,0.12544029302765486,0.1291534317063794,0.13275439937590516,0.13462389209153358,0.1350860876275654,0.13582946815128463,0.1373756269432271,0.13782304927231506,0.1385029537465247
0.07905286199046098,0.07875671793341857,0.07912819173594156,0.07950658940346753,0.07935082644801024,0.08035624408535079,0.08191006877028913,0.08312245181361293,0.0825137217722509,0.08151976405730026,0.08175989751407042,0.08161389095562248,0.07968781641386337,0.07766087403346211,0.0763464844506054,0.07715736189352299,0.07846275829851296,0.080099793060176,0.0808251290405313,0.08059791580048133,0.0802170740045699,0.08169993114587192,0.08295595852897603,0.084401695602058,0.08613998903378337,0.09041422436552397,0.09514196331162579,0.09847368243216605,0.10248452725502466,0.10950146504318878,0.11858894054348619,0.1249229751127949,0.12418236295164811,0.11788221041850123,0.10940160735154442,0.10180928401755547,0.09441802282509743,0.08798888115138742,0.08365711760622957,0.08103834190706077,0.07701184036155018,0.07158698907595337,0.0676555889234214,0.06613294436028938,0.06677360653132815,0.06912225142542809,0.0729328251263105,0.07825770888624729,0.08553224708777088,0.09694920271141814,0.105763966534209,0.1058341373532806,0.10201915437173853,0.09960505472563094,0.10326687078418023,0.1068308080247751,0.10986088014940787,0.11303611386238671,0.11649885346785002,0.11982373163935324,0.12240502977295417,0.12336970989260142,0.12358537063446157,0.12418199930909113,0.12436689492361525,0.12466070468784787,0.125002689617217,0.1269726123674824,0.12845415769064467,0.12741791569336716,0.12616459693455861,0.12505591418797252,0.12594605006724455,0.12718825768037592,0.12927916234786574,0.12984752999871962,0.12818365673073265,0.12605537502316444,0.12600375930935714,0.126780462536374,0.1275163786673201,0.1263387646108919,0.12438964287586263,0.12165193529284991,0.11846518286899599,0.11588395768220418,0.11490049555635262,0.11591538569943718,0.1176685124661726,0.12001948046320432,0.1230075379470217,0.12565933890257155,0.12706227751619809,0.12641042164790434,0.12586442643503676,0.1253010927464789,0.12595143295722136,0.12693396231884221,0.1291742616504262,0.13125737332572493,0.13302992188463092,0.1340243400639013,0.13472530159706564,0.13550671781467932,0.13625693585172793,0.1377111638344121,0.1395466745600502,0.14093400454584587,0.14193391341315745,0.14292151767149155,0.14397700227052934,0.14542268063882133,0.14725232463650778,0.14898853960681963,0.1498682285067966,0.14966020271295005,0.14927642498640162,0.14877289929336293,0.14805512115210387,0.14716539005514911,0.14617577425303502,0.14530501030058277,0.1439513685522718,0.14179635721679928,0.13837576538483204,0.13466071426651458,0.1310020083788805,0.1289462830033593,0.1279930588151399,0.12818012310905827,0.12863812251193238,0.12969811090484182,0.13225108197013696,0.13542093754437634,0.13783688838596928,0.13946144601603488,0.14060426014356064,0.14167122073335708,0.14145482344386165,0.14117981115853034
0.08457973432618215,0.08346735268854548,0.08249989092231383,0.08216913969706213,0.08167044283997224,0.08302190861426965,0.08520853923241932,0.0880316762797359,0.08902130722550712,0.08961180011996646,0.08967424321761212,0.08829110926737575,0.08394909906507811,0.08114856579819466,0.07909063684063652,0.07931567610083254,0.07917540177785631,0.08069179866333681,0.08192024269828543,0.08209863344782956,0.08135901768115965,0.08229622777450678,0.08402001910323753,0.08553077407593229,0.08692584881329306,0.08952761872112378,0.09208176899979474,0.09543937332627854,0.1009054073486496,0.10889787026740548,0.11660505276683475,0.11934546845331201,0.11569412469508383,0.10837347981683611,0.10263161104872695,0.10089906042217965,0.09958784429784888,0.0982093056131304,0.0962323208863521,0.09439691833587813,0.09123302564098587,0.08823367288247139,0.08771249318083695,0.090332750877671,0.09356406141887169,0.09679729797787667,0.099369230470972,0.1015176468093289,0.10459007966566986,0.10715900403376254,0.10557599672807746,0.10194799312403126,0.10257401091923095,0.10905362849580146,0.11594914717218671,0.11853171908355242,0.119660030827914,0.12048816054013102,0.12039303294313566,0.11970272194565341,0.1201695118604428,0.12087641578345047,0.12128529287492622,0.12097445848333233,0.11992810133694048,0.11907356437316177,0.11751079674044965,0.11738543766546228,0.11636506647981096,0.11553403742005913,0.11681527176867008,0.11943520908081176,0.12311885776775945,0.12522165707531657,0.1263989926308975,0.12619386595650733,0.12479678381950149,0.12462911305942401,0.12569803827652626,0.1273516752982712,0.12795852311481484,0.12672568008066773,0.12401857429556554,0.1209609187867477,0.11789407055813902,0.11623326709171548,0.1162923797820797,0.11827822348203534,0.11984747720657177,0.1212982571146006,0.12346012945807033,0.12648024809068392,0.12862776004769966,0.12845939066943693,0.1278537503065325,0.12809614434764427,0.12955476144733183,0.1313317666874623,0.1332505789253178,0.13537625642116152,0.13658974733571566,0.13693608461285947,0.13739558346667088,0.13864394386837156,0.13966304757121256,0.14007989382125818,0.14061462209617687,0.14123928910909142,0.14211459872316565,0.1425820926527688,0.14352326784297115,0.14481921567628697,0.14658165547407265,0.14754526363650408,0.14772885140491432,0.14731406410653336,0.1473718257347713,0.14720341036963291,0.14712633541063275,0.14664494793481,0.14557444671118486,0.14397954067888613,0.1416271256410867,0.13889753915900724,0.1356251403979602,0.1324356038726066,0.12989902283300686,0.12811518197371993,0.1273072923137301,0.12702131731168773,0.12743038612684535,0.12785160311651733,0.12895335141600817,0.13081367079550307,0.1335327332146962,0.13604456089114841,0.13767661254361502,0.13834357724090632,0.13899555276913317,0.1412631824295406
0.08462536520145872,0.08401377684701196,0.08419438593496573,0.08421662123755053,0.08343729573460494,0.08304755366381555,0.08366896116517696,0.08684491607032771,0.09065477989817113,0.09238943416651967,0.09100980413294368,0.08762177242855489,0.08454989566475155,0.0858888646845225,0.08909443233276805,0.09437233074466125,0.09775597972988576,0.10149115750871684,0.10425630852609519,0.1041115377693795,0.10086969896228477,0.09673001579436813,0.09281745225137904,0.09018430882497136,0.09000819140302804,0.09343662941975317,0.09791780013202327,0.10336014047664278,0.10838251624905497,0.11238448213717359,0.11357278208625007,0.1110247143834012,0.10707011401205155,0.10458617842644063,0.1062154997704165,0.10924717754956374,0.10891617125610828,0.10685333733875628,0.10421747825083372,0.10301507970996852,0.10227611584847837,0.10287015509617728,0.10508346657605717,0.1077485031296734,0.11028201643477974,0.11322648971820046,0.11654298350066401,0.11962051883359588,0.12053691056062876,0.11720373356706727,0.11114214561931564,0.11006872078241449,0.11644873876730538,0.12716683795109804,0.1337887932212474,0.13466772272441188,0.13259291446095062,0.13012739841338225,0.12822555142867603,0.12663619581328941,0.12604090025370432,0.12669991829645752,0.12920064671202422,0.13077194300426065,0.13094188675826898,0.12971846008206736,0.12904660749039146,0.12947382658853382,0.12966689448217142,0.131274060441763,0.13440663092905392,0.1377943902023746,0.14000570298857523,0.1399640750402389,0.1390541294322355,0.13758029448253267,0.1356680133871982,0.13455530850199257,0.13354629600591283,0.13326029595932795,0.1320909739629825,0.1303393051580097,0.1279220720030743,0.12556741712592223,0.1233026787089045,0.12174584311166456,0.12144541687719682,0.12268184994848724,0.1245801900417045,0.12725093319624978,0.13017794433992017,0.1329599145452901,0.13448413053708813,0.13420198468562342,0.13398008026438507,0.13422369465834808,0.13530901918231922,0.1362221443297059,0.1373898467650147,0.13820934170209462,0.13843338989778553,0.13841566685631407,0.13912961123473755,0.14065254198999247,0.14155604202171226,0.14179021989555224,0.14177289789828057,0.14180301992994582,0.14228593140144968,0.14301745925876722,0.1449093602811197,0.14686856596287257,0.14842154284063122,0.1487699421946062,0.14865023530004576,0.1484685197639589,0.1483872490498517,0.14746301383811145,0.14612667377859878,0.14442276428481243,0.1424113112281155,0.140188122322735,0.13724256667641943,0.1342103579686321,0.13141260672656083,0.12982403192676764,0.12891466831663506,0.12842490791556846,0.12867385912351798,0.12990394666123603,0.131753157833551,0.13281703455233007,0.13424380240758738,0.13600703281473675,0.1380238044941587,0.13868288133714998,0.14005049251832727,0.14283766646783322,0.14767186450556946,0.1288051450175546
0.08465318748106998,0.08401956878595991,0.08470111319717531,0.08554579380125214,0.08589143829224513,0.08613795214374513,0.08654389397281755,0.08788825192672116,0.08904938457708217,0.08875551159017211,0.0877931937373138,0.08616459571734657,0.08566730946786184,0.08818021976306803,0.09234000410658748,0.0985263901955236,0.10282368213585558,0.10576758564385995,0.10603687094893442,0.10326589599564875,0.09899331153583962,0.09585290826566059,0.09501244767792748,0.09542391774971175,0.09713775067469031,0.10120411192851869,0.10601620554563745,0.10976731163210328,0.11096909234581503,0.10944529086719813,0.10587803942430994,0.10321707798481948,0.10474113433448441,0.11076616942077247,0.11815197978454436,0.12204354862389682,0.12194664619638514,0.12167340533418214,0.12231924472969319,0.12340600566172047,0.12378695626093117,0.12594767459390366,0.12997330901235082,0.13427900122700887,0.1376105866871415,0.13930344905491066,0.14024645370222208,0.1404457514585949,0.13893336694171404,0.1335050338035254,0.12705338330410892,0.12522169719669696,0.1284151606403454,0.13371596909185376,0.13491825530295246,0.13230023096662802,0.128321368443186,0.1241210595789184,0.11980621216385341,0.11479271856200103,0.11177423505881624,0.1125491607586528,0.11599057295582893,0.11808902488579294,0.11616283421244003,0.1113158142366277,0.10777661440348982,0.10796302674780461,0.11057816770274102,0.11612009952206706,0.12284245903296051,0.12912403731241573,0.13258089484900987,0.1334099635163581,0.1338685907878508,0.13418509377943166,0.13474181936878812,0.13531385217465308,0.13524165991201792,0.1354890456915753,0.1346727400750451,0.13381217475339088,0.13208650522495705,0.1313166314197992,0.13097057581969204,0.13113736345673133,0.13145999217026705,0.1327659060507605,0.13431530781524986,0.13620729333143974,0.13665290138516717,0.13667217764331951,0.13626121120313267,0.13598038872695303,0.13636770355044184,0.13645767936812717,0.13663807015965584,0.13694412338968787,0.13752784073084734,0.13821049848339212,0.1387710929762155,0.13987237532998284,0.14177725720560103,0.14327354501816478,0.14329603571564514,0.1421526315217264,0.14156312017004147,0.14225502915186705,0.1442017253155911,0.14602469271184243,0.14790862147273043,0.14905266536098458,0.14918563082451575,0.14826981920863005,0.14734045165935294,0.14718760248144908,0.14728290953020134,0.14617409294244468,0.1443247460695826,0.14222263571201774,0.1405698630771529,0.1388883619573266,0.13674203430080814,0.13445561221871602,0.1331612792366081,0.1328601830078111,0.1326330135633831,0.13160809547543234,0.1309684856570252,0.1308699964509685,0.13088029567209458,0.12953395964425748,0.12875170592125854,0.12886463176374316,0.13294118460233262,0.13882335416473973,0.15020861632246052,0.13259311769400492,0.11468516465103927,0.06904381308519389
0.08424292573751553,0.0840389035141138,0.08564474844774674,0.08803455434054118,0.09205742536185449,0.09600723781805351,0.0990814210040616,0.09992431671647695,0.09873495920694104,0.09547838846222093,0.09516159191651173,0.09757448171328945,0.10268893111260481,0.10820297127073687,0.11362161590847228,0.11939761239223828,0.12245476953823131,0.12093423177306967,0.11616205975557145,0.1098831012493524,0.10696747709419238,0.10715578067176831,0.10986455866420167,0.11332252002005148,0.11733967492412975,0.1228574467977102,0.12706247789726394,0.1275391668512852,0.12349562848455278,0.11708154141641057,0.11110426729972467,0.10919097086087336,0.11316555962830376,0.12056643672625134,0.1266194482468403,0.12784182116376014,0.12791910667808695,0.1295723455289759,0.13215135062363229,0.13361736690417167,0.13389092930976393,0.13537089377276407,0.13706887191887174,0.1378912757071369,0.13803665601556506,0.13803795641394567,0.13790881426785256,0.13719175464606878,0.13562181951376692,0.13304214153442215,0.131290061687526,0.13203413270315537,0.13507213856904837,0.13804013960170183,0.13878370574468116,0.13739328353817323,0.13558316868306303,0.1340959221815504,0.13227767905035742,0.12951914863282304,0.12672560810184774,0.12651291428888917,0.1292276146558095,0.13221647612587595,0.133552498343967,0.13181641738375668,0.1310804019516956,0.13195848299905813,0.13659252551407963,0.14286001472563645,0.1474628237578597,0.149377673156761,0.14743668996495507,0.14465903454551168,0.1422844369465117,0.1405013510660156,0.13908923890027441,0.13729950512430616,0.13567124802420727,0.13511521365852966,0.13391931036232596,0.13328654674109996,0.13248076198159853,0.13295245757514434,0.13395292707005393,0.13508582942443328,0.1357586116279238,0.1366255561162724,0.13771112922738013,0.13922420042885328,0.13924540440936625,0.13879423747150868,0.1382050086538339,0.13850448781862418,0.13957038918354928,0.1397059417745326,0.14013735403830263,0.1402094226909708,0.14106653715325848,0.1412608204000231,0.14187754065661243,0.14278466239013649,0.1441319580456555,0.1446006439478839,0.14394907775048085,0.14287293838556286,0.14312014911977183,0.14506322113068645,0.14764117703127294,0.1491609930315429,0.14964561488870193,0.14926341718223865,0.1484509002497805,0.14771547813230987,0.14773793687992479,0.1483362007284462,0.14834665055866286,0.1468169641366624,0.14357741303136684,0.13969728195155395,0.136941800272207,0.1359157743188077,0.13634117876563204,0.13576661196004416,0.1342596000862629,0.13194623211362416,0.1309316794370737,0.1312234274486651,0.13287834354834283,0.13461789800949245,0.13579425277337856,0.13619794235997068,0.13902211741009413,0.14475062134254937,0.12720782033254083,0.10923210574544207,0.09476943490799591,0.07780677977225628,0.05988606722527039,0.012189257658297384
0.09014943492627384,0.09050771530099855,0.09132274876609471,0.09342987458161726,0.09764743799586241,0.10128045099645024,0.1021809213594621,0.10020425514329255,0.0961808939344325,0.09105220770713365,0.0890064010456785,0.08967360020075171,0.0936101818126885,0.09748432570696021,0.10121001959230434,0.10394107413158721,0.10550941975460434,0.10355821098527451,0.10067372704535153,0.09832106331621245,0.10203786671416057,0.10931912979530678,0.11768689821818652,0.12346978031670308,0.12619961573273641,0.12800813064185376,0.12816382683987357,0.12643832717135528,0.12261168181970021,0.11879288067840629,0.11678465649179329,0.11801628406893784,0.12269654601925066,0.12851339335064327,0.13191992284638432,0.1327434068045406,0.134788747265801,0.13856622874360824,0.14231254313913966,0.14340511248247842,0.14408364043391664,0.14600644284209874,0.14830813130902826,0.14983610220738075,0.1504435838642035,0.15068533203522239,0.15020697100908123,0.14927503099679865,0.14784833070262457,0.14529236596960204,0.14248199765348457,0.13990107132071736,0.1388961437849528,0.13814893952906795,0.1367968101887871,0.13540966323563705,0.13438358645631868,0.1335739698850434,0.13124747230464356,0.12851682926461183,0.1263056321272458,0.12664877239338493,0.12717372835831608,0.1283090592698285,0.12755116506694236,0.1260760564380529,0.12433150193955689,0.1247315975739571,0.1260540811873036,0.12876297687346563,0.13108958829797784,0.13371635679854826,0.13470926057737104,0.1345076945462403,0.13466576253629842,0.13458921800266715,0.13472465096157293,0.13447371505647687,0.13471443982652806,0.13548869074345726,0.13604326359623078,0.13657326075201656,0.13656928966186077,0.13676675055624318,0.13737235813764606,0.13842633108018051,0.13964720569578404,0.1411791275932142,0.14232521850733937,0.14320775892598972,0.1423666188736004,0.1413650253001298,0.14026133731692467,0.140522250445137,0.14074323503462352,0.14069361576351586,0.14079778376070132,0.14110000602150782,0.14122117513441115,0.1407408166867303,0.14136043575441493,0.1423853146001231,0.1438224755656971,0.14392352391221003,0.143528442342459,0.14269897241505008,0.14364668029500538,0.14588695674428223,0.14835055868419483,0.14920658851839663,0.14894168407449868,0.14868178053761835,0.14866307223944292,0.14870859384334323,0.14823251855300978,0.14737450452088513,0.1460074756672039,0.1443139652584591,0.1417965735026987,0.13946273244383775,0.13815160981474378,0.13835952376325997,0.1389402299490189,0.13791127427538347,0.13923180360214882,0.14443444448375622,0.15913037404024738,0.13747969285448156,0.11234778406499174,0.07897826876971589,0.07888745291295435,0.07850179489018015,0.08028216650045827,0.08534574288540198,0.06795299385001051,0.051397596220984526,0.03663241047548632,0.016895539085274358,-0.005801829945818697,-0.033242017023169416
0.09894434774039428,0.09921798589760902,0.09907828225932791,0.10169457430924518,0.10675202714960413,0.11022097375212644,0.10979277096463004,0.10758173900307301,0.10667838741605104,0.10603378404680751,0.10753386979740395,0.10936859732977482,0.11227162483912882,0.11350436906883597,0.1133020482782588,0.11232602214371573,0.11052072867060951,0.10907738352378146,0.11073016136659869,0.1155916545019692,0.12379515515496806,0.13029277066463837,0.13487636018228086,0.13765781285702836,0.13919050950296355,0.13903936335486225,0.1365402489581024,0.13374270279009115,0.13123667366561237,0.12983388655672073,0.1295055877680233,0.13097118351316042,0.13419694401615978,0.13802469799152478,0.13986874061118493,0.140051643629797,0.14057446401376936,0.14185586141705445,0.14215035440865506,0.14043804443838748,0.13865084864490235,0.13813777644233374,0.13769708333228245,0.1369115613966666,0.13622839527034392,0.136717423502254,0.13768712439600514,0.13907494933086825,0.14015537262477437,0.13983399337357064,0.1386407029724943,0.13790702881536104,0.13913277851699896,0.14076388665084863,0.14128082889851012,0.14167237808265604,0.1428154821388465,0.14490187054676332,0.1463944946208919,0.14752792002011614,0.14738336435182295,0.14745798195384405,0.14748410198912235,0.14993186088523724,0.1529195413636104,0.15531485470023532,0.15589637660637704,0.15630791608263844,0.15662874436454247,0.15662635577139855,0.15505332805511124,0.1529563288024913,0.15006810108602603,0.14704668753963746,0.14214193461151617,0.13760329082368802,0.1340063820623528,0.13334561602930753,0.133319940383684,0.13314911964010717,0.13259057898314572,0.13203106642704932,0.13198253058179968,0.13287775670497176,0.13515186292982345,0.1376758158032463,0.13970236149964824,0.14087894773169188,0.14170664845012046,0.14115265438393354,0.13995721182031814,0.1389448620436501,0.13873726511163723,0.13942945708083496,0.13983735288787585,0.14060733925569416,0.14188849562104894,0.14315378807615964,0.14436533728563095,0.14469462949320785,0.1457728847900378,0.1463567693453964,0.1471462264031181,0.14715301826791588,0.14740999699334836,0.14748506566231437,0.14809730632535473,0.1489269310175914,0.14916982516451868,0.14863052780356545,0.14791715367929315,0.14768745116940732,0.14760272140075326,0.14738464531989248,0.14690532230834136,0.14674531271764135,0.14680016463800205,0.14692615054837418,0.14496854340113077,0.14045036429813,0.1347977757451421,0.13357466846078336,0.13657415406666112,0.144659128792403,0.12732823262226908,0.11193563034628277,0.10135465801297575,0.08041856389918425,0.05621803679390197,0.0237812532634738,0.0248505187249434,0.02637357143586641,0.02979998785926659,0.035632021857713164,0.01509794999301129,-0.0077041429850610455,-0.033242017023169416,-0.033242017023169416,-0.033242017023169416,-0.033242017023169416
0.09522984222683356,0.09651950184431854,0.0952969445419765,0.09543838147529071,0.09850932915910567,0.10327491284592683,0.10608068668733428,0.10685697529449789,0.10704118898641557,0.10817181244651396,0.11017638654284605,0.11084303943080273,0.11106490619078097,0.11052107763748668,0.11106534492368729,0.11187827802915261,0.11207252806692224,0.11338095660463032,0.11707391761240385,0.12296790653874987,0.12903499714404598,0.13252961391032625,0.1340016436306971,0.1344464160613843,0.13506245856775673,0.1355802659874309,0.13524011887223925,0.13468515572751052,0.13450815269076616,0.13498338376771502,0.13633902784742516,0.13827898194975066,0.14024471914096917,0.141319497268418,0.14178625183885873,0.14306661995756098,0.14456784131015213,0.1455726664403946,0.14545835445281186,0.14476095780894274,0.14542962118206396,0.14800113800095557,0.15128448814044132,0.15362409463067822,0.15236764192643265,0.15022935837151444,0.14907014151735243,0.1496225673197098,0.14835219065505514,0.14637021226384572,0.14402999803484473,0.1434987548703729,0.14206068371741795,0.14124828747929846,0.14025804552597998,0.13971321088692332,0.13941789518173184,0.14029806967895547,0.14081120260469387,0.1417177468299492,0.1413354749842204,0.14054102457791534,0.137685359537012,0.13517481144092872,0.13242085407550658,0.13180731899374795,0.13111304971616283,0.13233170214942874,0.13145747587724235,0.13124267411399024,0.13140022555258296,0.13325882768793115,0.13576808711734584,0.13800171550337878,0.13920527653909232,0.14013410669844475,0.13868808630211565,0.13890729042618236,0.13747790994308115,0.13851533286217488,0.13906802862844803,0.14069933723694067,0.14201847107263815,0.14414807977428792,0.14653702334278107,0.1472257967811138,0.1475250073968095,0.14680984221036603,0.14684223771746058,0.14558685314509678,0.1452794370414676,0.14432813947488202,0.14332284050834787,0.14203916758163518,0.14140701860608673,0.14228185129583215,0.14363682979866665,0.1446136753103049,0.14465245857937709,0.14417043960208717,0.14407424959368992,0.14356215407083034,0.14361427214306802,0.14397853942672445,0.1446471709200667,0.14476559071886835,0.1451379096200292,0.14588704739416736,0.14694280513749047,0.14781500926696783,0.14860771061984338,0.14942876921490017,0.14994994640358741,0.1490103829636416,0.145410453329266,0.14167514164260547,0.13902596046221588,0.13743986995727353,0.13620708031441336,0.13561007905397757,0.13879917433243116,0.12069766904349775,0.1029224849741576,0.08699374441107291,0.07051946689433447,0.05757998630507183,0.04815902452287402,0.026551771662606652,0.00057719933505699,-0.033242017023169416,-0.033242017023169416,-0.033242017023169416,-0.033242017023169416,-0.033242017023169416,-0.033242017023169416,-0.033242017023169416,-0.033242017023169416,-0.033242017023169416,-0.033242017023169416,-0.033242017023169416
0.10375256563869206,0.1052781493082902,0.10665856081277289,0.10794400532693782,0.10987371463484374,0.1136627610818799,0.11758870376313166,0.12042546708917244,0.12241269692737305,0.12584775689202954,0.1306963885175154,0.13390110740841124,0.13451672160590541,0.13355759299402842,0.13313997672538458,0.13319796287386665,0.13222241032349774,0.13252671861334628,0.1347397864117296,0.1386492391274032,0.1407300281739356,0.13973430239148407,0.1380150690915545,0.13716995134930401,0.13814640355240804,0.13921900059696724,0.13998275941699712,0.1398190350119656,0.13935581919508727,0.1386628717197304,0.13909658644985587,0.14103326866426308,0.1440187012311951,0.14616717256027698,0.14707970114291308,0.14766631189347343,0.14818965921113633,0.14826002891104947,0.1461158614140614,0.1423776339684753,0.13912846511421373,0.13610741354541872,0.1327967405714104,0.12858441183472114,0.12152088902963676,0.11964293388243516,0.1223050829336991,0.12826903375791465,0.12930364096196334,0.13046236432282243,0.13230536641151316,0.13482964389560836,0.134063923607546,0.13411578921279776,0.13577614475614241,0.1360129160263452,0.13698177986141555,0.1394955739443244,0.141381676435208,0.14314265632008294,0.14270157453505022,0.1440181722446871,0.14629721536666268,0.15062100570657738,0.1563421922862977,0.15892122133255002,0.1582623576237112,0.15600869537001544,0.15662910769900515,0.15742663515749827,0.15671386153185415,0.15387830869801503,0.15116505120680568,0.14922847320326874,0.14519567533547206,0.1420422196899146,0.13838203085129822,0.1383941334699425,0.13837564358722731,0.1401906374484368,0.14065349491724094,0.14003727272550803,0.1390038111397332,0.13898236468338987,0.1403111504729586,0.14117651280911117,0.14205850183288568,0.14187918315007034,0.14136967494112182,0.13906671109741517,0.13887369547275338,0.13877858995406786,0.139083122219062,0.1384488483236487,0.139337677529351,0.14180709725092033,0.1443785056583796,0.14564601773106467,0.14624723508724918,0.14604427387201116,0.14589648397879693,0.14536500662866375,0.14713380422349331,0.14949281238303855,0.15229336376723435,0.15303522853000928,0.153113913356981,0.1515494965185149,0.14927845522105332,0.1462697877871909,0.14433282439217715,0.14270905368655248,0.1403860547009456,0.13544995406737628,0.12967650098837327,0.126146717265618,0.1276041968473772,0.13200946370833028,0.11592720910534411,0.09778872208026033,0.08028596262557068,0.06178724236289615,0.04488497083057087,0.030531170955506323,0.012020539319148926,-0.008168362041048935,-0.033242017023169416,-0.033242017023169416,-0.033242017023169416,-0.033242017023169416,-0.033242017023169416,-0.033242017023169416,-0.033242017023169416,-0.033242017023169416,-0.033242017023169416,-0.033242017023169416,-0.033242017023169416,-0.033242017023169416,-0.033242017023169416,-0.033242017023169416
0.11392893005551796,0.11477877046936179,0.11480566606638548,0.11365442401075761,0.11325409581001647,0.11430069194931955,0.11688802105362318,0.11950255997348408,0.12085008384063171,0.12185914571461472,0.1223486444904065,0.12302471026626836,0.12434531386913125,0.12726290512616484,0.13092457545288164,0.13308623846025333,0.13334819494498854,0.13304554229407828,0.13296086004224636,0.13305219910877128,0.1327690458261917,0.13231665699604603,0.13204309875452974,0.13221964741351597,0.1337791505131473,0.13578310640240063,0.13711804100557293,0.13695468116313766,0.13622746378922196,0.13605219517214073,0.13768045188851116,0.14059421345725923,0.14424230615854244,0.1461382708322977,0.14749761943607656,0.14834572594986067,0.1485408836581542,0.14679434135002561,0.14211449685914815,0.13863569602232453,0.1385409839909897,0.14210643820521904,0.14901473311405264,0.1264894551329993,0.09817858702800569,0.06930845057115403,0.0710406112502609,0.07582825073882368,0.07564040051611032,0.07567178826975877,0.0762970686886846,0.07758605182574711,0.07570366757175252,0.07490973782336775,0.07577563825907559,0.07534749899989034,0.07541816298487908,0.0879643544518684,0.09988846187993419,0.10133307419842383,0.09008926186482594,0.08036827086068789,0.0811208226191402,0.09363665261978846,0.10205084765615081,0.11354460008483508,0.11398099245069158,0.11896464093687535,0.1195793939106573,0.12030992435987542,0.12184744059079397,0.12497054355686145,0.12804259787291822,0.13118134833016157,0.13542733930408163,0.1414757365557509,0.14670552831722333,0.1503214638537476,0.15016821659912172,0.14902361683831913,0.14665169847545206,0.14512877974860874,0.14564447519102497,0.14810485557500783,0.15116407104752191,0.1514297193738302,0.15054173882771735,0.14798124079152966,0.14743776877871267,0.1488855129882095,0.15259600757564257,0.15370265134025082,0.15141775739849,0.14748696163809213,0.14500431384737675,0.1451060849419434,0.1449330775784171,0.143700281863456,0.1419204172979542,0.1418471044752424,0.1432818222091443,0.14313540981872394,0.14234946274648802,0.14156171672900747,0.14009297150580957,0.13735017143136236,0.13503895134293914,0.13452838954380647,0.1352334963017981,0.1346030395655338,0.1334882778296351,0.13128371866641297,0.1300904986332295,0.12968052401262045,0.10839396091645363,0.08712886600750061,0.06699025025366907,0.07015593189617329,0.05440822064575625,0.039268518380912276,0.026324603235259904,0.009144912689094134,-0.010176506811887987,-0.033242017023169416,-0.033242017023169416,-0.033242017023169416,-0.033242017023169416,-0.033242017023169416,-0.033242017023169416,-0.033242017023169416,-0.033242017023169416,-0.033242017023169416,-0.033242017023169416,-0.033242017023169416,-0.033242017023169416,-0.033242017023169416,-0.033242017023169416,-0.033242017023169416,-0.033242017023169416,-0.033242017023169416
0.12710195384314038,0.12787165243316212,0.12847731474094048,0.12772110163236042,0.12500856715182068,0.11946123023500833,0.11480422597599356,0.1137048892128184,0.11539809339087022,0.11697363256475377,0.11692643236280595,0.11660662803872396,0.11653220155453044,0.11877410176398864,0.12163909783753293,0.12465370566004577,0.1261314121761767,0.12671083739740469,0.12675468122308928,0.12666839171516422,0.12746923066945925,0.12917450421618906,0.13091437607491985,0.13280312454816653,0.13527618579319325,0.13749410434843262,0.1385359376139374,0.13770562330938618,0.1367882124915643,0.1375500665815316,0.14032921823776132,0.1443683633502078,0.14846173618428288,0.15087740818220055,0.1511604804299599,0.14829108504687205,0.14440091088120885,0.12243473617852185,0.09934076916948224,0.07763182312427572,0.07568370659547494,0.07615995465008665,0.07947519071028922,0.0544464836694028,0.027639485582706305,0.0015485899387807996,0.005465844540713683,0.011250360806202113,0.013422737697347004,0.015096108735493607,0.016922392258161945,0.018175592999641207,0.018094717828318084,0.018553082816853535,0.020216651194338506,0.02038100231727652,0.021041973617230036,0.03303355500408551,0.04470721645911547,0.04599439188952065,0.03568218020305711,0.027104842633584758,0.029950109370862968,0.045473538514603846,0.0569666967079986,0.07013480570007488,0.07144145268720549,0.07603285951093414,0.07603523735209032,0.07518285885506,0.07474970848363878,0.07553906971937757,0.07614776233805165,0.07664573807593758,0.07736983942767113,0.07952622947299795,0.08369506869470847,0.08757321880124777,0.08999706119279939,0.08839589626139735,0.08584844056018189,0.08290696168635434,0.08257772057587325,0.08345581110942973,0.08535914793243424,0.08618842485858842,0.08628976207288812,0.08533132918851737,0.08557422714019061,0.09795043999189464,0.1139679394605223,0.13014925113032685,0.1330160483357736,0.13452282362759543,0.136650695442709,0.14013694621024922,0.14163422749716256,0.1414976592705768,0.14091192615527623,0.13919662982844133,0.13501604782518659,0.13315271654947922,0.13576234128256814,0.14106790844326775,0.14444087090473584,0.14448771019071768,0.14956168078903712,0.12688076137593915,0.10384124455793096,0.07425135775679527,0.07210339983527418,0.06919203952427799,0.06756047634195428,0.06793063692083322,0.04960545772576594,0.03162995216283715,0.01409111826533816,0.019290156473165607,0.003999045970002654,-0.013134462339685663,-0.033242017023169416,-0.033242017023169416,-0.033242017023169416,-0.033242017023169416,-0.033242017023169416,-0.033242017023169416,-0.033242017023169416,-0.033242017023169416,-0.033242017023169416,-0.033242017023169416,-0.033242017023169416,-0.033242017023169416,-0.033242017023169416,-0.033242017023169416,-0.033242017023169416,-0.033242017023169416,-0.033242017023169416,-0.033242017023169416,-0.033242017023169416,-0.033242017023169416
0.1221693773114718,0.11974735020783257,0.11495623255611787,0.11096689595386067,0.10801308077643428,0.10304390290797324,0.09862711460333635,0.09636836435316617,0.09743371782592669,0.09892854526046906,0.10016825191342899,0.10173653579406458,0.1037871351906571,0.1072544166765885,0.11106512066421347,0.11432823701473536,0.11575627247698911,0.11622029102367262,0.11596188025556772,0.11670338538868066,0.1184980368517753,0.12039337732548559,0.12213153427710637,0.12511913361283789,0.1302104841627558,0.1350209364057154,0.13793294039578613,0.1390330436333127,0.14027337676557966,0.14260341270192337,0.14530143283691604,0.1471962623850201,0.14827272739376068,0.1466034208768284,0.14548825351473818,0.12293331040454367,0.10085653375423428,0.05965493666615669,0.03805864442292877,0.01937858104685137,0.020762587671187147,0.025741281775987633,0.034425382852625225,0.014978648883728712,-0.006596354229040058,-0.033242017023169416,-0.033242017023169416,-0.033242017023169416,-0.033242017023169416,-0.033242017023169416,-0.033242017023169416,-0.033242017023169416,-0.033242017023169416,-0.033242017023169416,-0.033242017023169416,-0.033242017023169416,-0.033242017023169416,-0.02260817376348762,-0.011974330503805815,-0.011974330503805815,-0.02260817376348762,-0.033242017023169416,-0.033242017023169416,-0.02260817376348762,-0.01733433544618308,-0.0072311374361445895,-0.005785790565109984,0.0010364307262529485,0.0010214655795805013,0.0008319257881934526,0.002509199604999735,0.007029049405077703,0.01092867035220365,0.014295073300109706,0.018514249384023747,0.0239393666883551,0.02982339425869665,0.033576336703598296,0.033822763145624365,0.030765419972251483,0.027480701412038636,0.025895147934576965,0.026956770376855413,0.029532652562118414,0.03239408930203574,0.03326971663963148,0.032633080699750544,0.03061253414255874,0.030634872397579248,0.04360783313605576,0.05987765471092331,0.07589067224078233,0.07820954717654575,0.07899932270132623,0.0796514991144947,0.08163795207734152,0.09300163722075483,0.1030079516428457,0.1163013694977566,0.12113456639340167,0.12992262995074258,0.14746045356116755,0.13096519997564077,0.11094831981403003,0.0781809681227871,0.07730088850405478,0.08245601239824155,0.06190623435326993,0.04195396696566124,0.01590343709508176,0.016106939371018557,0.015138457891693213,0.016007567951401576,0.02025066357049983,0.004574114764910021,-0.012768289884497354,-0.033242017023169416,-0.033242017023169416,-0.033242017023169416,-0.033242017023169416,-0.033242017023169416,-0.033242017023169416,-0.033242017023169416,-0.033242017023169416,-0.033242017023169416,-0.033242017023169416,-0.033242017023169416,-0.033242017023169416,-0.033242017023169416,-0.033242017023169416,-0.033242017023169416,-0.033242017023169416,-0.033242017023169416,-0.033242017023169416,-0.033242017023169416,-0.033242017023169416,-0.033242017023169416,-0.033242017023169416,-0.033242017023169416,-0.033242017023169416
0.10411939487806271,0.1032757961966188,0.10062533897866195,0.09793194861424026,0.09500319454951153,0.09130443355413298,0.08950343023535977,0.08946157886365506,0.09112523648520232,0.09119328752866561,0.09147484583745238,0.09327692513910697,0.09728558117323308,0.10221511607701027,0.10668258527830118,0.10965842625133572,0.11082531941784836,0.11076327538875327,0.1106032621559519,0.11310045315553476,0.11813565857048872,0.12252263784042622,0.12554356783785692,0.1280827780108288,0.1321501529700596,0.13562749404397434,0.1383256400994502,0.13949170995932572,0.14023159788484246,0.1419799127836204,0.1421341610497694,0.13875461916616283,0.11918761788308001,0.09968737443927281,0.08423832454695507,0.06222150353440567,0.041408138404187896,0.00242135862940256,-0.015573673346829357,-0.033242017023169416,-0.033242017023169416,-0.033242017023169416,-0.033242017023169416,-0.033242017023169416,-0.033242017023169416,-0.033242017023169416,-0.033242017023169416,-0.033242017023169416,-0.033242017023169416,-0.033242017023169416,-0.033242017023169416,-0.033242017023169416,-0.033242017023169416,-0.033242017023169416,-0.033242017023169416,-0.033242017023169416,-0.033242017023169416,-0.033242017023169416,-0.033242017023169416,-0.033242017023169416,-0.033242017023169416,-0.033242017023169416,-0.033242017023169416,-0.033242017023169416,-0.033242017023169416,-0.033242017023169416,-0.033242017023169416,-0.033242017023169416,-0.033242017023169416,-0.033242017023169416,-0.033242017023169416,-0.033242017023169416,-0.033242017023169416,-0.033242017023169416,-0.033242017023169416,-0.033242017023169416,-0.033242017023169416,-0.033242017023169416,-0.033242017023169416,-0.033242017023169416,-0.033242017023169416,-0.033242017023169416,-0.033242017023169416,-0.033242017023169416,-0.033242017023169416,-0.033242017023169416,-0.033242017023169416,-0.033242017023169416,-0.033242017023169416,-0.022932203390604894,-0.009556943888341416,0.005824364475480209,0.010331502249204198,0.01393626463208092,0.017745702169064112,0.021498145637380242,0.03429710904578467,0.04551627809440718,0.06006239862195124,0.06431222760936059,0.07104906073199545,0.0878698546875648,0.07336986066955713,0.05611035851986024,0.0274331801806557,0.030178376554483688,0.03790160710772483,0.016642476089211336,-0.005631540547562973,-0.033242017023169416,-0.033242017023169416,-0.033242017023169416,-0.033242017023169416,-0.033242017023169416,-0.033242017023169416,-0.033242017023169416,-0.033242017023169416,-0.033242017023169416,-0.033242017023169416,-0.033242017023169416,-0.033242017023169416,-0.033242017023169416,-0.033242017023169416,-0.033242017023169416,-0.033242017023169416,-0.033242017023169416,-0.033242017023169416,-0.033242017023169416,-0.033242017023169416,-0.033242017023169416,-0.033242017023169416,-0.033242017023169416,-0.033242017023169416,-0.033242017023169416,-0.033242017023169416,-0.033242017023169416,-0.033242017023169416,-0.033242017023169416,-0.033242017023169416,-0.033242017023169416
0.09264725971110552,0.0906867396673471,0.0875821774016943,0.08604545255332974,0.08565457656955103,0.08600891115824712,0.08762454295608867,0.08846185272161197,0.08908551324706111,0.0890776916228051,0.09164022393448021,0.09684429908015994,0.10374290834760375,0.10938202882643931,0.11354177404579024,0.11453471186982127,0.11350182399157521,0.11081818199702347,0.11040432021037191,0.11419578246655143,0.1201223997394006,0.12285585813999156,0.1250656157347097,0.12798143804202577,0.1341307387716993,0.1386641849139369,0.14048177932798,0.14087683721091376,0.14052344927015678,0.12233469068456004,0.1016249287115442,0.07717847197068745,0.0568264734785245,0.03743644664871935,0.023348882942420525,0.004242611109322843,-0.013778536761195384,-0.033242017023169416,-0.033242017023169416,-0.033242017023169416,-0.033242017023169416,-0.033242017023169416,-0.033242017023169416,-0.033242017023169416,-0.033242017023169416,-0.033242017023169416,-0.033242017023169416,-0.033242017023169416,-0.033242017023169416,-0.033242017023169416,-0.033242017023169416,-0.033242017023169416,-0.033242017023169416,-0.033242017023169416,-0.033242017023169416,-0.033242017023169416,-0.033242017023169416,-0.033242017023169416,-0.033242017023169416,-0.033242017023169416,-0.033242017023169416,-0.033242017023169416,-0.033242017023169416,-0.033242017023169416,-0.033242017023169416,-0.033242017023169416,-0.033242017023169416,-0.033242017023169416,-0.033242017023169416,-0.033242017023169416,-0.033242017023169416,-0.033242017023169416,-0.033242017023169416,-0.033242017023169416,-0.033242017023169416,-0.033242017023169416,-0.033242017023169416,-0.033242017023169416,-0.033242017023169416,-0.033242017023169416,-0.033242017023169416,-0.033242017023169416,-0.033242017023169416,-0.033242017023169416,-0.033242017023169416,-0.033242017023169416,-0.033242017023169416,-0.033242017023169416,-0.033242017023169416,-0.033242017023169416,-0.033242017023169416,-0.033242017023169416,-0.033242017023169416,-0.033242017023169416,-0.033242017023169416,-0.033242017023169416,-0.02260817376348762,-0.012401290818906901,0.0017695290873311138,0.008403216301349214,0.021385233071733525,0.04071130413459359,0.023443773660893688,0.0002548739459286545,-0.033242017023169416,-0.033242017023169416,-0.033242017023169416,-0.033242017023169416,-0.033242017023169416,-0.033242017023169416,-0.033242017023169416,-0.033242017023169416,-0.033242017023169416,-0.033242017023169416,-0.033242017023169416,-0.033242017023169416,-0.033242017023169416,-0.033242017023169416,-0.033242017023169416,-0.033242017023169416,-0.033242017023169416,-0.033242017023169416,-0.033242017023169416,-0.033242017023169416,-0.033242017023169416,-0.033242017023169416,-0.033242017023169416,-0.033242017023169416,-0.033242017023169416,-0.033242017023169416,-0.033242017023169416,-0.033242017023169416,-0.033242017023169416,-0.033242017023169416,-0.033242017023169416,-0.033242017023169416,-0.033242017023169416,-0.033242017023169416,-0.033242017023169416,-0.033242017023169416
0.0888501521369226,0.08759188571818699,0.08586653717977101,0.08505353394164805,0.08593880513230641,0.08879859259563085,0.09359755451584773,0.0964009766413156,0.09637683423230903,0.09542029108247024,0.09822949862390393,0.10443015013749195,0.11114849285744575,0.11513385151510364,0.11753654920574366,0.11768204063667788,0.11716243913890143,0.11636341265902952,0.11862947794359019,0.12345646219124246,0.12957868721894916,0.13359712384011344,0.13753508649230362,0.13966025665048598,0.1410226301162825,0.13824991988547386,0.1349638347832632,0.1336319440503116,0.11543124935040426,0.07944514904090977,0.04033336259123868,0.0171619716990249,-0.0018042045953539773,-0.019079732003149146,-0.033242017023169416,-0.033242017023169416,-0.033242017023169416,-0.033242017023169416,-0.033242017023169416,-0.033242017023169416,-0.033242017023169416,-0.033242017023169416,-0.033242017023169416,-0.033242017023169416,-0.033242017023169416,-0.033242017023169416,-0.033242017023169416,-0.033242017023169416,-0.033242017023169416,-0.033242017023169416,-0.033242017023169416,-0.033242017023169416,-0.033242017023169416,-0.033242017023169416,-0.033242017023169416,-0.033242017023169416,-0.033242017023169416,-0.033242017023169416,-0.033242017023169416,-0.033242017023169416,-0.033242017023169416,-0.033242017023169416,-0.033242017023169416,-0.033242017023169416,-0.033242017023169416,-0.033242017023169416,-0.033242017023169416,-0.033242017023169416,-0.033242017023169416,-0.033242017023169416,-0.033242017023169416,-0.033242017023169416,-0.033242017023169416,-0.033242017023169416,-0.033242017023169416,-0.033242017023169416,-0.033242017023169416,-0.033242017023169416,-0.033242017023169416,-0.033242017023169416,-0.033242017023169416,-0.033242017023169416,-0.033242017023169416,-0.033242017023169416,-0.033242017023169416,-0.033242017023169416,-0.033242017023169416,-0.033242017023169416,-0.033242017023169416,-0.033242017023169416,-0.033242017023169416,-0.033242017023169416,-0.033242017023169416,-0.033242017023169416,-0.033242017023169416,-0.033242017023169416,-0.033242017023169416,-0.033242017023169416,-0.033242017023169416,-0.033242017023169416,-0.033242017023169416,-0.033242017023169416,-0.033242017023169416,-0.033242017023169416,-0.033242017023169416,-0.033242017023169416,-0.033242017023169416,-0.033242017023169416,-0.033242017023169416,-0.033242017023169416,-0.033242017023169416,-0.033242017023169416,-0.033242017023169416,-0.033242017023169416,-0.033242017023169416,-0.033242017023169416,-0.033242017023169416,-0.033242017023169416,-0.033242017023169416,-0.033242017023169416,-0.033242017023169416,-0.033242017023169416,-0.033242017023169416,-0.033242017023169416,-0.033242017023169416,-0.033242017023169416,-0.033242017023169416,-0.033242017023169416,-0.033242017023169416,-0.033242017023169416,-0.033242017023169416,-0.033242017023169416,-0.033242017023169416,-0.033242017023169416,-0.033242017023169416,-0.033242017023169416,-0.033242017023169416,-0.033242017023169416,-0.033242017023169416,-0.033242017023169416
0.09131807364966416,0.09068531293687186,0.09265577609285232,0.09604389435388165,0.09987117610054164,0.10389961245054494,0.10867788692774961,0.1118623884207117,0.11303250881786844,0.11428315626781499,0.11764989746054438,0.12190517126236294,0.12473053887343043,0.12530765156809176,0.12557486620525746,0.12432844936188216,0.1230847127558071,0.12295997301210368,0.12556386670032296,0.12960810356151808,0.13220976899690742,0.1331572913863029,0.1341007907504133,0.13420620481176632,0.1326774285765175,0.12563849856438453,0.10530629752732382,0.08901840465465077,0.058762850634796054,0.023426140478725502,-0.01401918719916334,-0.033242017023169416,-0.033242017023169416,-0.033242017023169416,-0.033242017023169416,-0.033242017023169416,-0.033242017023169416,-0.033242017023169416,-0.033242017023169416,-0.033242017023169416,-0.033242017023169416,-0.033242017023169416,-0.033242017023169416,-0.033242017023169416,-0.033242017023169416,-0.033242017023169416,-0.033242017023169416,-0.033242017023169416,-0.033242017023169416,-0.033242017023169416,-0.033242017023169416,-0.033242017023169416,-0.033242017023169416,-0.033242017023169416,-0.033242017023169416,-0.033242017023169416,-0.033242017023169416,-0.033242017023169416,-0.033242017023169416,-0.033242017023169416,-0.033242017023169416,-0.033242017023169416,-0.033242017023169416,-0.033242017023169416,-0.033242017023169416,-0.033242017023169416,-0.033242017023169416,-0.033242017023169416,-0.033242017023169416,-0.033242017023169416,-0.033242017023169416,-0.033242017023169416,-0.033242017023169416,-0.033242017023169416,-0.033242017023169416,-0.033242017023169416,-0.033242017023169416,-0.033242017023169416,-0.033242017023169416,-0.033242017023169416,-0.033242017023169416,-0.033242017023169416,-0.033242017023169416,-0.033242017023169416,-0.033242017023169416,-0.033242017023169416,-0.033242017023169416,-0.033242017023169416,-0.033242017023169416,-0.033242017023169416,-0.033242017023169416,-0.033242017023169416,-0.033242017023169416,-0.033242017023169416,-0.033242017023169416,-0.033242017023169416,-0.033242017023169416,-0.033242017023169416,-0.033242017023169416,-0.033242017023169416,-0.033242017023169416,-0.033242017023169416,-0.033242017023169416,-0.033242017023169416,-0.033242017023169416,-0.033242017023169416,-0.033242017023169416,-0.033242017023169416,-0.033242017023169416,-0.033242017023169416,-0.033242017023169416,-0.033242017023169416,-0.033242017023169416,-0.033242017023169416,-0.033242017023169416,-0.033242017023169416,-0.033242017023169416,-0.033242017023169416,-0.033242017023169416,-0.033242017023169416,-0.033242017023169416,-0.033242017023169416,-0.033242017023169416,-0.033242017023169416,-0.033242017023169416,-0.033242017023169416,-0.033242017023169416,-0.033242017023169416,-0.033242017023169416,-0.033242017023169416,-0.033242017023169416,-0.033242017023169416,-0.033242017023169416,-0.033242017023169416,-0.033242017023169416,-0.033242017023169416,-0.033242017023169416,-0.033242017023169416,-0.033242017023169416,-0.033242017023169416
