0.08165879312796201,0.0819825079054809,0.08249424995055021,0.0830997147106045,0.08371781991331445,0.08418871881638279,0.0845225104901873,0.08481954906684679,0.08493316542998515,0.08522262473853082,0.08570950964100457,0.08614449531587562,0.08686598581088659,0.08694309675118148,0.08668057968835893,0.08629086644530223,0.08580754455191271,0.08586774489217255,0.08666201162638548,0.08791302751285766,0.08985790277372872,0.08947707427136589,0.08763304990859563,0.08326324171049126,0.07803422996445404,0.07107824509200417,0.06190959948354102,0.05311312396450061,0.04644494291652768,0.04362357469271873,0.041990449520267155,0.041892007285228614,0.04244553051303057,0.04350304602407686,0.044130043047322716,0.04395837852430138,0.04394942955938758,0.04417490717953083,0.04531476309859997,0.0467040043387908,0.04896705326917303,0.05181114230810946,0.05490460137642121,0.05757247943923771,0.05972965520273069,0.06226663968513247,0.06462178095747022,0.06649047176599474,0.06733947032103221,0.06891332111116608,0.07056891776067054,0.07224228659366368,0.07262638007799663,0.07282258980418703,0.07295443962443204,0.07404451248430881,0.07559309673421366,0.0771517814691089,0.07802618639619684,0.07953385368822928,0.0818466511871132,0.08449906276436661,0.0874878519331242,0.09094385656213383,0.09440031220527062,0.09636610577208563,0.09703420088063686,0.09844245015103106,0.10143546364898558,0.1040713496684767,0.10456995735345513,0.10297533230577825,0.10107212897709227,0.0993032290411067,0.09799232829048078,0.0976019520652084,0.09828623668837341,0.09918109826213194,0.09994004529340321,0.10067071636094263,0.10194709882274147,0.10407306915769299,0.1064824303869154,0.10870576477881817,0.10966735774247424,0.10966872826208848,0.10948774883380764,0.10949221302011054,0.10960331707801518,0.10925820110592942,0.10908745468855321,0.11028137725733186,0.11232045741547413,0.11434850194970375,0.11549804319890189,0.11620923818250027,0.11774393771447453,0.11984718567923028,0.1224677023082417,0.12516287971104287,0.12830538192720684,0.13166826588390823,0.1348108727662605,0.1368903859078559,0.13908639436768147,0.14124534686990747,0.14272376455761573,0.13956898129718504,0.11359033592181284,0.05969567471301078,0.009246976298706765,-0.019076500865498582,-0.019076500865498582,-0.019076500865498582,-0.019076500865498582,-0.019076500865498582,-0.019076500865498582,-0.019076500865498582,-0.019076500865498582,-0.019076500865498582,-0.019076500865498582,-0.019076500865498582,-0.019076500865498582,-0.019076500865498582,-0.019076500865498582,-0.019076500865498582,-0.019076500865498582,-0.019076500865498582,-0.019076500865498582,-0.019076500865498582,-0.019076500865498582,-0.019076500865498582,-0.019076500865498582,-0.019076500865498582,-0.019076500865498582,-0.019076500865498582,-0.019076500865498582,-0.019076500865498582
0.08045696609496465,0.08061969571609505,0.08103961615456562,0.08176939518914744,0.0824332437594901,0.08284359569312631,0.08299289312556932,0.08322250922421046,0.08351340732283413,0.08383536573268408,0.08405226615919342,0.08419894571517586,0.08437257398850914,0.08449396283288221,0.08431131235146568,0.08376042226602239,0.0830867827633048,0.08233644700681715,0.08190850231373996,0.08116339709886561,0.0811167999348562,0.08035157624053564,0.07902599321301558,0.07549859635910561,0.0696349325121083,0.060873829525003254,0.05078911826825096,0.04332848881411965,0.03985005290554837,0.039857600863437585,0.04035318868797552,0.04149135174965903,0.04273262016464776,0.04361482444863625,0.04419732074944849,0.04459806461645204,0.04539887368297523,0.04601246529214731,0.04683861024101155,0.04687767602930042,0.045872616250054524,0.04521031343094534,0.04844638063393009,0.054366003698552795,0.0613496115411121,0.06626531511985241,0.06988097244363592,0.07240734605524854,0.07402990998844937,0.07653037006855527,0.07836095836353013,0.07997723603611452,0.08019885607906864,0.07998737251619333,0.07931415767697327,0.07932956345409982,0.08027895184587987,0.08182725359175662,0.08283654412214601,0.08409962834338622,0.08547624224711298,0.08692170133479264,0.08872498456193002,0.09157884480655876,0.09530986822976487,0.09806290381798184,0.09908006880699222,0.09985403442156313,0.10080630804587166,0.10160708353263814,0.10081986921469081,0.09958173034789533,0.09897200030775868,0.09922720393802359,0.09968995703238495,0.09994539277057024,0.10042322928868934,0.10146554575061568,0.1034286003775989,0.10559616195658794,0.1071265500456666,0.1076870263265191,0.1076791668616056,0.10829259430820129,0.10899863713540615,0.10910157305263066,0.10829860078880213,0.10691553105922016,0.10653870637090428,0.10769476912996909,0.10993754249260519,0.11213910925989978,0.11352778175317348,0.11494046755441192,0.11662949126627231,0.11827352028294322,0.12026756991230311,0.12223995930398385,0.1248132157695937,0.12726154896241856,0.130021884391451,0.13313530319935063,0.13596916490464067,0.13830161121419993,0.14086654888493355,0.14383301148976485,0.14600410074619333,0.14142897847424385,0.09712155610624182,0.04199877956920519,-0.007964131379275315,-0.019076500865498582,-0.019076500865498582,-0.019076500865498582,-0.019076500865498582,-0.019076500865498582,-0.019076500865498582,-0.019076500865498582,-0.019076500865498582,-0.019076500865498582,-0.019076500865498582,-0.019076500865498582,-0.019076500865498582,-0.019076500865498582,-0.019076500865498582,-0.019076500865498582,-0.019076500865498582,-0.019076500865498582,-0.019076500865498582,-0.019076500865498582,-0.019076500865498582,-0.019076500865498582,-0.019076500865498582,-0.019076500865498582,-0.019076500865498582,-0.019076500865498582,-0.019076500865498582,-0.019076500865498582
0.08299195382946797,0.08298384372879021,0.08302763465277797,0.08364227127456685,0.0843231801460323,0.08512629435703067,0.08551556048436187,0.08607447429863327,0.08638994425647525,0.08662673889225286,0.08663007004061869,0.08655730404500261,0.08647779028907092,0.08659830618820531,0.08660790920656287,0.08655754924098324,0.08649852227250182,0.08633496821072209,0.0853925850676986,0.08409806611482115,0.08260681283363393,0.081727603413054,0.0797410929890921,0.07540565261168562,0.06726747119016893,0.05715602001361199,0.04748300504533429,0.0423463429700731,0.04090946398382122,0.042817406413414784,0.0441347486577412,0.04565509447619212,0.04651163917768555,0.046893903827004604,0.04711972542418338,0.047407951956056425,0.0477669694300959,0.04649322468875295,0.04486683234679558,0.04381448056342942,0.03760339841400407,0.02995722201391437,0.03193075531430374,0.04602276478442997,0.06415746956837572,0.07198206364647258,0.07385348453146162,0.07379267822850548,0.07488999866340301,0.07719005900063244,0.07844082678680762,0.0791198423817116,0.07892446947485733,0.07867837661894993,0.07828744135647146,0.07827166115081796,0.07956648261127178,0.08137957184702076,0.08325494570548898,0.08466884509336592,0.08584484761616197,0.08663679398761598,0.08809321122721515,0.09017849994420779,0.09287668458701544,0.09502315354386903,0.09613701936274363,0.0965723108473546,0.09646344354979405,0.09636655718171742,0.09615855402346365,0.0962009600705479,0.09659097264967517,0.09738799672011553,0.0985949238448737,0.10052003074573854,0.10242761748541973,0.10393226866058919,0.10485525757607524,0.10565375403619696,0.1062374718844864,0.10684604780348547,0.10696731879193049,0.10682665898008123,0.10573112169797413,0.10434866324717233,0.10433462158329682,0.10591102855116798,0.10838690155781087,0.11041824771245293,0.11207847225030673,0.1139022086500166,0.1156246622525678,0.11737783342342453,0.11925666309474867,0.1212029753117999,0.12335089465026028,0.1252256923491215,0.12736965694371827,0.1298036307705954,0.13322694603525242,0.13690819380842176,0.13965768188962385,0.14188495069265086,0.14392819781726965,0.14597173807801744,0.145283017072037,0.13305152450298977,0.07746887301748391,0.023830640627441963,-0.019232968265061635,-0.019076500865498582,-0.019076500865498582,-0.019076500865498582,-0.019076500865498582,-0.019076500865498582,-0.019076500865498582,-0.019076500865498582,-0.019076500865498582,-0.019076500865498582,-0.019076500865498582,-0.019076500865498582,-0.019076500865498582,-0.019076500865498582,-0.019076500865498582,-0.019076500865498582,-0.019076500865498582,-0.019076500865498582,-0.019076500865498582,-0.019076500865498582,-0.019076500865498582,-0.019076500865498582,-0.019076500865498582,-0.019076500865498582,-0.019076500865498582,-0.019076500865498582,-0.019076500865498582,-0.019076500865498582
0.08168110446823632,0.08198238080947791,0.08204016688104523,0.08256806974884597,0.08303011119946545,0.08368810863561377,0.0838059075890071,0.08421977087376069,0.08457453012480905,0.08489651053647473,0.08491282145531195,0.08487580830771231,0.08469987732256745,0.08457923993378404,0.0843150264389324,0.08427321145537311,0.08431446629881366,0.08399911796966161,0.08308263516281081,0.08168977306561724,0.08035717370294061,0.07913437805886564,0.07608036259146471,0.06936230654403495,0.05855449010263298,0.048134625793565755,0.04083587594446392,0.039675908452021465,0.04099921413842046,0.04398655243691398,0.045268959389806615,0.0464765149232174,0.04686571223147436,0.0470468811742242,0.04697985465512373,0.047722241205961635,0.04889606777585928,0.0482182777343093,0.04613354303641747,0.04443508821643236,0.03456332379612978,0.023811574298853184,0.028311064109718738,0.05399315143045039,0.0864709181444124,0.09822629519843698,0.09624804769527043,0.08880590470147738,0.08650702478952055,0.08737648821762148,0.08813784163056437,0.08858209588589558,0.0879312311043719,0.08742896333245732,0.08657527997968813,0.08583782482317315,0.08615402376919312,0.08754734485718561,0.08944527068079469,0.09071654069249711,0.09139017739512292,0.09201237946578376,0.09317972539340616,0.09478704954308834,0.09663509648112936,0.09833198175528782,0.09925976534767528,0.09932872266045555,0.09911304019799623,0.09957488649125783,0.10079200631969744,0.102167890318422,0.10326066761780245,0.10407115493028499,0.1043768474225309,0.10485998035303341,0.10540876473321636,0.10632691613242834,0.1072086683135974,0.107786959979668,0.10730674248506306,0.10605684490576281,0.10454918640746347,0.10407502442880348,0.10440284695707475,0.1055931339285326,0.10721426860170076,0.10917110213738714,0.11102712115211891,0.11274850631112458,0.11452113932337049,0.1163584671189975,0.11815990664707787,0.11993055068196402,0.12174392628284615,0.12360740667017328,0.12550311970199415,0.12788745649852853,0.13094450551403877,0.13315196071863583,0.134547153713599,0.13599150198998505,0.138016367092016,0.14083674969854473,0.14338931834856866,0.14549618989629637,0.14380792503634007,0.1203294090783669,0.06514650105157009,0.012673001130075422,-0.019076500865498582,-0.019076500865498582,-0.019076500865498582,-0.019076500865498582,-0.019076500865498582,-0.019076500865498582,-0.019076500865498582,-0.019076500865498582,-0.019076500865498582,-0.019076500865498582,-0.019076500865498582,-0.019076500865498582,-0.019076500865498582,-0.019076500865498582,-0.019076500865498582,-0.019076500865498582,-0.019076500865498582,-0.019076500865498582,-0.019076500865498582,-0.019076500865498582,-0.019076500865498582,-0.019076500865498582,-0.019076500865498582,-0.019076500865498582,-0.019076500865498582,-0.019076500865498582,-0.019076500865498582,-0.019076500865498582
0.0841583129811413,0.08461383289235563,0.08463287949705245,0.08500794733256656,0.08539409509637709,0.08616379533805515,0.08644178193105571,0.08706769578671707,0.08756634355895232,0.08781021616724312,0.08790025283609408,0.08791761489592916,0.08805826886600489,0.08790228973786707,0.08771176954426134,0.08781533742938294,0.08806638916368188,0.08763325523723553,0.08664144023813658,0.08533234101083993,0.08414454685616787,0.08224393351025147,0.07724300560005319,0.06785054922692842,0.056218365939047096,0.047994215987767944,0.044828584306285814,0.046459869534165386,0.04854811185028261,0.05140007603545875,0.05243144300907105,0.053103347333254954,0.05290189684601549,0.0528255579434674,0.05293679552343589,0.05406363751061943,0.05615628494993511,0.056132295507407,0.05373760173605451,0.05050335416710465,0.04114173002002559,0.03583253787982591,0.046969607022232185,0.07939850925674384,0.11271602817685254,0.11972944419332705,0.10960958560108608,0.09487274845934313,0.0895803223616797,0.08884629438700807,0.08910034414677165,0.08949804843445114,0.08880308513351219,0.0879770565334673,0.08666711113612119,0.08563500236676476,0.08562998484195944,0.08684850647984485,0.08872097191485918,0.09050632142135819,0.09203095556813817,0.0933733302797839,0.09453215227984334,0.09537618497697532,0.09585671546244064,0.09656939638218684,0.09743133336223864,0.09809408213270525,0.09866428282134695,0.09964043278984092,0.10082650023797228,0.10159637450685542,0.10233911563877103,0.1034586068627679,0.10434524613883116,0.10522142817977435,0.1056874208301772,0.10570471883776038,0.10465458183027257,0.10326001103247875,0.10224023488229579,0.10254362924520578,0.10363304573641892,0.1049263355961229,0.10583939171118888,0.10703038853647025,0.10893692864153663,0.11147233776424843,0.11387310637344052,0.11603620546688072,0.11795281914266134,0.11975220300684324,0.12117990473892307,0.12244915844084943,0.12423170838484902,0.12705911348805987,0.1300001567382389,0.13185483440363238,0.1324972032922037,0.1334530217831857,0.13567485472567362,0.13920039336999648,0.1423264664609809,0.14556673962084626,0.14796190014597477,0.14875754864195473,0.1395906983391682,0.09688317114887256,0.04145292791830821,-0.005277292874070963,-0.019076500865498582,-0.019076500865498582,-0.019076500865498582,-0.019076500865498582,-0.019076500865498582,-0.019076500865498582,-0.019076500865498582,-0.019076500865498582,-0.019076500865498582,-0.019076500865498582,-0.019076500865498582,-0.019076500865498582,-0.019076500865498582,-0.019076500865498582,-0.019076500865498582,-0.019076500865498582,-0.019076500865498582,-0.019076500865498582,-0.019076500865498582,-0.019076500865498582,-0.019076500865498582,-0.019076500865498582,-0.019076500865498582,-0.019076500865498582,-0.019076500865498582,-0.019076500865498582,-0.019076500865498582,-0.019076500865498582
0.0828020256418706,0.08333758579690975,0.08341386689303204,0.08367842086563097,0.08392062229836254,0.08440080832536312,0.08449836003120108,0.0849474408281069,0.0853342339939473,0.08548594985990496,0.08559530272049541,0.08573725108662301,0.08609092973082695,0.08616777434308485,0.08623817261782869,0.0863724891924901,0.08642954788981881,0.08569909650412098,0.08459564718292603,0.08321073418951781,0.0817401849209809,0.07868852852845394,0.07205228494761634,0.061272001457565554,0.05034398595168163,0.044130641778348884,0.04404148386424932,0.04715187741097144,0.0503100091484434,0.05253049903037842,0.053483188469134545,0.05366402219111172,0.0536850432243875,0.053684199877278085,0.054059160371649345,0.05666403295212225,0.06014954250795479,0.0628002173703678,0.06260444787762962,0.06273929831398949,0.06253147722680595,0.07173609391626908,0.09201953502096354,0.12308223675798798,0.14732300292076309,0.14686980748061773,0.1312342768062848,0.11175997667695824,0.1036203569130685,0.10101910553184065,0.1001954135280144,0.10020053285129396,0.09935210722870716,0.09839250891657644,0.0968346339885394,0.0954851645238816,0.0943706675204224,0.09458115403573575,0.0952849261708762,0.09658558131383323,0.09804988859749939,0.09986347068572869,0.1017526015839945,0.10288564050364028,0.10278600066364894,0.10234415096774606,0.10194018008996081,0.10207419766648675,0.1025359656096887,0.10384278552255627,0.10577252613214415,0.10715522045539971,0.10796604822785401,0.10818978778239267,0.10746408758046269,0.10605620176524136,0.10468226112959164,0.10402796408062724,0.10376825281788163,0.1037705797059115,0.10399708097642221,0.10486386836364214,0.1062926897403771,0.10817436447334833,0.11029089697117817,0.112566084996084,0.11460601699463899,0.11615379442825552,0.11700546428447238,0.11770832629553568,0.11883687631667712,0.12055871354242884,0.12302043851015942,0.12551352359015022,0.12747710342640522,0.1282855971814761,0.1290301566485471,0.13090243372689206,0.13326877896723477,0.13503259370064377,0.13568300526912425,0.1374138457783377,0.13989537197238186,0.14285948093440298,0.143903888058969,0.1404096379084715,0.11558284784424068,0.06403601292310993,0.013499523320235449,-0.01637001384602241,-0.019076500865498582,-0.019076500865498582,-0.019076500865498582,-0.019076500865498582,-0.019076500865498582,-0.019076500865498582,-0.019076500865498582,-0.019076500865498582,-0.019076500865498582,-0.019076500865498582,-0.019076500865498582,-0.019076500865498582,-0.019076500865498582,-0.019076500865498582,-0.019076500865498582,-0.019076500865498582,-0.019076500865498582,-0.019076500865498582,-0.019076500865498582,-0.019076500865498582,-0.019076500865498582,-0.019076500865498582,-0.019076500865498582,-0.019076500865498582,-0.019076500865498582,-0.019076500865498582,-0.019076500865498582,-0.019076500865498582
0.08537648767167033,0.08586832277441056,0.08571230065121031,0.08574981872098203,0.08590733852453929,0.08646166692080816,0.08673399182054682,0.08727135380011916,0.08757659035086014,0.08769612323774865,0.08788446075814127,0.08823658005897017,0.08889546943819329,0.08935524352574069,0.08968494402310753,0.08958986213276839,0.08911013702063897,0.08818785269797691,0.08719880821412178,0.08591596724426388,0.08414381905820809,0.08019176009975401,0.07256816745857057,0.06169228280724023,0.05281840343989172,0.04950545593642986,0.05130660064675564,0.05380484283239923,0.05593542553270226,0.05785919036922811,0.05992954350972995,0.060901143943925644,0.06164947372230814,0.06193389467545041,0.06303789535834713,0.06618924870469464,0.06947201701839498,0.07125799098772585,0.06910957337947463,0.06829470226209129,0.07293075993210403,0.09138854172180509,0.11503436658007614,0.13863907007311432,0.14844885763688664,0.14023717761003254,0.12415805340578183,0.10783927366369439,0.10185925688982726,0.09910339960649545,0.09813141043815662,0.0982264377288528,0.09809947023618065,0.09773035739750217,0.09673042767220436,0.09596210677836349,0.0950227279432306,0.09492479089658332,0.09524405914107195,0.0964403807487172,0.09785041925722582,0.09960078437515636,0.10183493792523006,0.10378826856762839,0.10360127616176266,0.10232440343692914,0.10064295893726133,0.10024400304980786,0.10065675028293666,0.10158626671116298,0.10257299568975019,0.10262081404823198,0.10243678837731368,0.10235901890545304,0.10235527647226389,0.10250506931358894,0.10279405068417963,0.10326913653188373,0.10390967116701116,0.10494902629049885,0.1064636979555077,0.10845606506473376,0.11034793556937675,0.11187133928130513,0.11293937673847723,0.11423635413489272,0.11592909015239149,0.11789644929598618,0.11989125672217711,0.12194611215052982,0.12399981056105662,0.12514231560639344,0.12511151320249891,0.12410088884300116,0.12436605025251003,0.12575712815830747,0.12822000024927493,0.13007925715983068,0.1311891483076713,0.13302666586216336,0.13627304753093147,0.14108090980147434,0.14530873105426467,0.14847204566652494,0.1497577281818718,0.14536470245961788,0.10256950763091836,0.046282104931656964,-0.005204489823660839,-0.019076500865498582,-0.019076500865498582,-0.019076500865498582,-0.019076500865498582,-0.019076500865498582,-0.019076500865498582,-0.019076500865498582,-0.019076500865498582,-0.019076500865498582,-0.019076500865498582,-0.019076500865498582,-0.019076500865498582,-0.019076500865498582,-0.019076500865498582,-0.019076500865498582,-0.019076500865498582,-0.019076500865498582,-0.019076500865498582,-0.019076500865498582,-0.019076500865498582,-0.019076500865498582,-0.019076500865498582,-0.019076500865498582,-0.019076500865498582,-0.019076500865498582,-0.019076500865498582,-0.019076500865498582,-0.019076500865498582,-0.019076500865498582
0.083742248332257,0.08425989835402088,0.08411912250984288,0.08403965407131943,0.08412420934711383,0.08447847949824405,0.0846494829153146,0.08497582893493168,0.08511697389750005,0.08540243390644216,0.08582603412519747,0.08629270063484822,0.08666569261340622,0.08692583169965748,0.08720081316395764,0.08683627666495997,0.0860161026066063,0.0851074342295447,0.08447357531274964,0.08330534901377282,0.08116337840684792,0.07646872733934547,0.0683243592347332,0.058131520223362536,0.05086789164918003,0.049688958629498466,0.052433010985969704,0.05517094715340133,0.056670045926235535,0.058135532248668596,0.06004918902960653,0.06151111649666539,0.06306355566073726,0.06426974390601864,0.06610618978372682,0.06902282828391104,0.07103094897004969,0.07196611091960445,0.07088055100003991,0.07422672775773452,0.08496638709305908,0.10763313439063808,0.13348912575014593,0.15243915946295117,0.15622261880383026,0.1442697046128258,0.12958044518039852,0.11645838054516248,0.11129121554014652,0.10827357081604397,0.10696337942529945,0.10644407513903026,0.10628517956220752,0.10612309678935983,0.10567844413831533,0.10495667891246208,0.10391872909240303,0.10341822709308837,0.10324115236865432,0.10368342531262556,0.10429421232094335,0.1056603483326794,0.10832751915065558,0.11088456730722548,0.11099760601125713,0.10854657613037928,0.10545806532231934,0.1039578842404307,0.10390909909704389,0.1041729884525711,0.1046983780868764,0.10493075580446054,0.10529755601070233,0.10535728656929252,0.10543631367763115,0.1056501584275522,0.10616297861857878,0.10687432397846389,0.10773280126395686,0.1090332743749093,0.11045879324999047,0.1123525857405816,0.11429756629305678,0.11663253391341295,0.11908109320263298,0.12136945512920527,0.1228498500731322,0.12342625005839745,0.12328523793282081,0.12283757840664528,0.12279826454169068,0.12351250243021256,0.1246909029645078,0.12530220895081848,0.1256211216503406,0.12539248512093815,0.1261436165121934,0.12860829188079925,0.13237379350901218,0.13588244319698453,0.13848889220461888,0.14114510712025616,0.14388347476072555,0.14525201279429334,0.14356352987160112,0.13025241499660045,0.07586033625868069,0.02311708120096032,-0.01867159128339415,-0.019076500865498582,-0.019076500865498582,-0.019076500865498582,-0.019076500865498582,-0.019076500865498582,-0.019076500865498582,-0.019076500865498582,-0.019076500865498582,-0.019076500865498582,-0.019076500865498582,-0.019076500865498582,-0.019076500865498582,-0.019076500865498582,-0.019076500865498582,-0.019076500865498582,-0.019076500865498582,-0.019076500865498582,-0.019076500865498582,-0.019076500865498582,-0.019076500865498582,-0.019076500865498582,-0.019076500865498582,-0.019076500865498582,-0.019076500865498582,-0.019076500865498582,-0.019076500865498582,-0.019076500865498582,-0.019076500865498582,-0.019076500865498582
0.08593926581837419,0.08641030344500454,0.08626663433792561,0.08610735482808947,0.08623905783712718,0.08653932396305043,0.08705793893380709,0.08749522229120661,0.08777525839172305,0.08802933329189594,0.08849000902093078,0.08873653924054531,0.08862091059315165,0.08835233732599627,0.0886247747459849,0.0884869569855654,0.08818033421475675,0.08774723973816331,0.08763428524914452,0.08636602210346854,0.08365493707960978,0.07788692678044547,0.06867942433024687,0.05824933110573385,0.051993105791783026,0.05292300122532203,0.0569172052072454,0.060414460766574314,0.061556242854582395,0.0633924787383091,0.06544579709146892,0.06753455164704757,0.06954920571057588,0.07203451197943424,0.07516049648051706,0.07829266415727627,0.07910765745199187,0.07915914689988035,0.07814779093492936,0.0814949562126478,0.09139484839584706,0.10758426781476975,0.12694742644683085,0.1378002050258372,0.13717238605876367,0.12516185882352449,0.11378642999842362,0.10649830358409385,0.10392229506451775,0.10247287403816052,0.10235666457514019,0.10253025950632488,0.10279695967269854,0.10294349396509242,0.10309971348629726,0.10314408913557162,0.10285332660297855,0.1027710777754184,0.10289583599903936,0.10329385966402466,0.10396821210082902,0.1054539444865276,0.10870532114766332,0.11206252535908336,0.11244600318978262,0.10930983400552188,0.1048939219386829,0.10233599545017688,0.10167629539266235,0.10131544125034028,0.10117556690021304,0.10121385495887288,0.1021507879586569,0.10338805418529078,0.10478596689045563,0.10629938486655462,0.10812381547984962,0.11006966987036793,0.1121006475553153,0.11404116243229338,0.11571617082820272,0.11729278950291419,0.11803879083761705,0.1186490626009066,0.11890063693194561,0.1193938867241329,0.1192377901236427,0.11917772882844004,0.11968474021973319,0.12092810441273497,0.12252987785043865,0.12361159463094364,0.12353372086590364,0.12228666289052867,0.12207866039759604,0.12396937783390748,0.12747075032474164,0.1307231881166432,0.1338760473171787,0.13706414749584772,0.14099959550983393,0.1448792651900302,0.1483760597171467,0.1498699379725338,0.1471316737619957,0.11864062233644132,0.062320701521343155,0.009107033114316473,-0.019076500865498582,-0.019076500865498582,-0.019076500865498582,-0.019076500865498582,-0.019076500865498582,-0.019076500865498582,-0.019076500865498582,-0.019076500865498582,-0.019076500865498582,-0.019076500865498582,-0.019076500865498582,-0.019076500865498582,-0.019076500865498582,-0.019076500865498582,-0.019076500865498582,-0.019076500865498582,-0.019076500865498582,-0.019076500865498582,-0.019076500865498582,-0.019076500865498582,-0.019076500865498582,-0.019076500865498582,-0.019076500865498582,-0.019076500865498582,-0.019076500865498582,-0.019076500865498582,-0.019076500865498582,-0.019076500865498582,-0.019076500865498582,-0.019076500865498582
0.0838489518493391,0.0841345380666584,0.08397677605033511,0.08375385282248396,0.08400198089260899,0.0843721088440491,0.08503179360213453,0.085338013091302,0.08587253122259082,0.08622847869868576,0.0868076941876488,0.08653927895963166,0.08577278146216777,0.08502983838149056,0.085093826759408,0.08501403124070518,0.08499721193470572,0.08507642833713823,0.08558023513137113,0.08457104646151947,0.08177852591447651,0.07567085170948826,0.06617527380476457,0.056131437479149456,0.05072530989577033,0.05218167301548795,0.056601266532631575,0.06065650907855104,0.06309928557835476,0.06581226921863054,0.06822301838399236,0.07024768577545792,0.07190797441804966,0.07426400864394958,0.07747383918172299,0.08186864680536163,0.08399012381110746,0.08504518747152416,0.08435306773908874,0.08622235885328951,0.09311874194981022,0.1021979226848533,0.11825590868531875,0.13167856262250416,0.13631764102623561,0.12965775799607818,0.11958613858017296,0.11490959518623,0.11267831658915282,0.11147097206073941,0.11111458649437277,0.110925532182952,0.11052240208617871,0.11014450349479596,0.10981435063409883,0.1095548516038677,0.10914169816365017,0.1089839780913151,0.10900470562080522,0.10951792059869192,0.11037165977961735,0.11243049259919123,0.11596241169652355,0.11906364617712048,0.1189847558927172,0.11494909582556422,0.1101868596857814,0.10715620928158062,0.10661580500933512,0.10688028719157709,0.1078502241418399,0.10907480858773168,0.11069910540666471,0.11189747656951755,0.11281780407013978,0.11332908231762326,0.11397349469988342,0.11465191159047045,0.11513316851860629,0.1154623775317653,0.11536543886505018,0.11552916010172276,0.11577676079713146,0.11679079493992837,0.11764568070100397,0.11845262550350932,0.11810614202995517,0.11763411224938577,0.11705989267893896,0.11695599193424835,0.11763589559529321,0.11929574025373357,0.12194240434160734,0.12482498997197392,0.12737166400777436,0.1297836252334357,0.13236374053876765,0.1354619475569305,0.13892110297298285,0.14232237970301628,0.145211062705438,0.14728878176971777,0.14814737314016288,0.14650449611500824,0.13463357840931947,0.08838044952969078,0.03442281890459505,-0.009613168616190292,-0.019076500865498582,-0.019076500865498582,-0.019076500865498582,-0.019076500865498582,-0.019076500865498582,-0.019076500865498582,-0.019076500865498582,-0.019076500865498582,-0.019076500865498582,-0.019076500865498582,-0.019076500865498582,-0.019076500865498582,-0.019076500865498582,-0.019076500865498582,-0.019076500865498582,-0.019076500865498582,-0.019076500865498582,-0.019076500865498582,-0.019076500865498582,-0.019076500865498582,-0.019076500865498582,-0.019076500865498582,-0.019076500865498582,-0.019076500865498582,-0.019076500865498582,-0.019076500865498582,-0.019076500865498582,-0.019076500865498582,-0.019076500865498582,-0.019076500865498582
0.08674037971605199,0.08685264131203861,0.0865347968043017,0.08630788710516725,0.08652729162254373,0.08698190771007698,0.08747738101096714,0.08746065430973306,0.0877927849593873,0.08795320148642696,0.0885372430787266,0.0882799299216607,0.08773446501440331,0.08749405569014725,0.08786641558679799,0.08829282395846376,0.0884333024001634,0.08847317176290487,0.08852607852076665,0.0872631449791022,0.08439391833240094,0.07822987348728105,0.06851509967112582,0.05824620483225271,0.05342584646781776,0.055932445594832264,0.06075124774926138,0.06473731334822662,0.06701086473974023,0.07040414114780558,0.07397802364029778,0.07671019992872469,0.07886056663659313,0.08079671571139124,0.08405409108087883,0.08895037846526425,0.09230327812915552,0.09512204652732363,0.09595607766905392,0.09743894246813797,0.1010580944933735,0.1023746157744644,0.10535754083310189,0.10834910598391033,0.11145732818001883,0.11141304362083373,0.10782444871930821,0.1059144079002108,0.10505423234375241,0.1048224008956546,0.10494097353849162,0.10527719073113662,0.10535450743176357,0.1057275536749123,0.10618545918211918,0.10712744922452144,0.10737190667369856,0.10773796789447758,0.10819707320813489,0.10939019433782411,0.11118842213022774,0.11383763898804744,0.11766318466517889,0.12098051435487682,0.12053942997235353,0.11602851201700394,0.11048337548175127,0.1070685994723957,0.10625612077453682,0.10638549826763806,0.10777645925183217,0.10933526264561882,0.11109795306357725,0.11215427680676264,0.11292895083675926,0.11319126806159756,0.11356189718969034,0.11406180201822613,0.11471520561198165,0.11487927141596527,0.1144242919151678,0.11381302203826676,0.11306953153820279,0.11263913442998708,0.11138186344751166,0.11060835247325351,0.11014475798737797,0.11117130596518135,0.11319697198691554,0.11574548779022129,0.11879810551894457,0.12105483852565938,0.1231185055219833,0.12498787710840958,0.12757574936014404,0.13058789709351293,0.13387342193925392,0.13710988303721364,0.14024740664004692,0.14318604005242588,0.14578979863605293,0.14790000185779348,0.14866530862984362,0.1453140904555567,0.1169553908298152,0.06118592946761542,0.008756654761830053,-0.019076500865498582,-0.019076500865498582,-0.019076500865498582,-0.019076500865498582,-0.019076500865498582,-0.019076500865498582,-0.019076500865498582,-0.019076500865498582,-0.019076500865498582,-0.019076500865498582,-0.019076500865498582,-0.019076500865498582,-0.019076500865498582,-0.019076500865498582,-0.019076500865498582,-0.019076500865498582,-0.019076500865498582,-0.019076500865498582,-0.019076500865498582,-0.019076500865498582,-0.019076500865498582,-0.019076500865498582,-0.019076500865498582,-0.019076500865498582,-0.019076500865498582,-0.019076500865498582,-0.019076500865498582,-0.019076500865498582,-0.019076500865498582,-0.019076500865498582,-0.019076500865498582
0.08490843987766977,0.08488545105926198,0.08462336222966993,0.08460362022868428,0.08477290374385323,0.08521051733171676,0.08537881808273233,0.08544201885601105,0.08584769670639843,0.08601308545257746,0.08635132287438485,0.08611172692818768,0.08609129697100382,0.08672974034684197,0.08721298822779983,0.08743973804694374,0.08718715764021742,0.08707178534683216,0.08689455317171334,0.08585505080977479,0.08361512748808889,0.07828903117551402,0.0687928598482702,0.05873742997956854,0.053857969797855954,0.05635387637147404,0.06118908646257806,0.06561762828806651,0.06867528655672342,0.07254877565787424,0.07646099317457566,0.0793485161100245,0.08169370117136268,0.08335225509149817,0.08588464532613417,0.08972668963897396,0.09336220446936139,0.09696744835265837,0.0992480997612173,0.10081030189366015,0.1026268938336046,0.10090636785820527,0.10089517960648882,0.10305986317116471,0.11036597064202806,0.114995300221098,0.11583958092754125,0.11412811314651664,0.11312831122268241,0.11249311355799403,0.1122061232847965,0.11228690080573997,0.11212431642390308,0.11235546124033045,0.11237418070898882,0.11293222090325121,0.11303456268034,0.11376508697735199,0.11492587571341084,0.11666075009832855,0.11870600374343654,0.1215447946844458,0.1248178762842693,0.12676682083592739,0.12485584133663181,0.11936847492474414,0.11391784136728436,0.11037012835632481,0.10947672923616478,0.10969989116184506,0.11109272971234892,0.11240576252636707,0.11326764861132116,0.11333396266625474,0.11327631382950984,0.11277719854930907,0.11210136145635113,0.11132269396285986,0.1105662162099559,0.10964793961881471,0.10864192032179214,0.10827893088373505,0.10905307509249133,0.11068754133151491,0.11151900308922652,0.11216912521421867,0.11303490418695408,0.11505378221253668,0.11736032740558032,0.11941174618930026,0.12171337412715408,0.12391209205709204,0.1268574687579155,0.13001084188456113,0.13323213080177376,0.13612227730743093,0.1393048420821082,0.14274167164360316,0.14566454686548724,0.14796072783403824,0.14939304867727798,0.1502764943001784,0.14871201924239782,0.13808702803567474,0.09247836552478027,0.037725095395313116,-0.008222533346282054,-0.019076500865498582,-0.019076500865498582,-0.019076500865498582,-0.019076500865498582,-0.019076500865498582,-0.019076500865498582,-0.019076500865498582,-0.019076500865498582,-0.019076500865498582,-0.019076500865498582,-0.019076500865498582,-0.019076500865498582,-0.019076500865498582,-0.019076500865498582,-0.019076500865498582,-0.019076500865498582,-0.019076500865498582,-0.019076500865498582,-0.019076500865498582,-0.019076500865498582,-0.019076500865498582,-0.019076500865498582,-0.019076500865498582,-0.019076500865498582,-0.019076500865498582,-0.019076500865498582,-0.019076500865498582,-0.019076500865498582,-0.019076500865498582,-0.019076500865498582,-0.019076500865498582
0.08833536350817238,0.08811534584930839,0.08793534799621154,0.08812501423426031,0.08817932084344474,0.08835799929629753,0.08798123543139737,0.08808466672024137,0.08832239308818131,0.08843490247988244,0.0885143626573237,0.08822788292344881,0.08848285098960178,0.0894668919055836,0.09047971031939794,0.09130299750614011,0.09133029597376446,0.0909237924537821,0.09011968809699875,0.0894198658029684,0.08801339645375136,0.08310033604454854,0.07262477429400883,0.06146105810917179,0.056568544106387036,0.06033113131118808,0.06641985050368276,0.07118010477566873,0.07355022473969822,0.07671992775953809,0.08035613014801217,0.0833859918557844,0.08593869038893558,0.08784181857033332,0.0907442557874847,0.093954534564887,0.09738490198941152,0.10132392774959113,0.10597716331903131,0.11007715331477398,0.11281708280627302,0.11206840488639704,0.10903415125868078,0.10323973194488625,0.10455031416034113,0.10576600820742932,0.10909518680898345,0.10685633916035382,0.10657972241013002,0.10675057882530384,0.10726246640687864,0.1075065673078521,0.1077281258284152,0.1087609741554167,0.11006743517951985,0.1116760734795421,0.11262246763810327,0.11413475286999543,0.11623922288254958,0.11865524470428261,0.12107318660402513,0.1240000830221272,0.12703835246199222,0.1281909888661626,0.12520335014740458,0.11913389042445688,0.11354416677410724,0.1100417520604644,0.10871111198564457,0.1081333440462921,0.10857946494929972,0.10913993610551197,0.1094140864035518,0.1091657889717497,0.10913326970906723,0.10928710288899107,0.10949402065411526,0.1095610492954443,0.10967503276810815,0.10961718263881165,0.10974825151667045,0.1103783127296382,0.11146961446536857,0.11271609029171051,0.11333592888609999,0.11415014955896856,0.115243641458854,0.11729736465420991,0.1198052609499929,0.12233737548329462,0.1250097383127627,0.127259316995261,0.12981920944714265,0.13190674455081858,0.13420626144600376,0.13633700033420576,0.13933775296205314,0.1422918006977888,0.14447345315908616,0.1456293091732837,0.1461837406371997,0.1463415423218825,0.1427057034436549,0.11595573513312211,0.060996518998121696,0.009475287542546175,-0.019076500865498582,-0.019076500865498582,-0.019076500865498582,-0.019076500865498582,-0.019076500865498582,-0.019076500865498582,-0.019076500865498582,-0.019076500865498582,-0.019076500865498582,-0.019076500865498582,-0.019076500865498582,-0.019076500865498582,-0.019076500865498582,-0.019076500865498582,-0.019076500865498582,-0.019076500865498582,-0.019076500865498582,-0.019076500865498582,-0.019076500865498582,-0.019076500865498582,-0.019076500865498582,-0.019076500865498582,-0.019076500865498582,-0.019076500865498582,-0.019076500865498582,-0.019076500865498582,-0.019076500865498582,-0.019076500865498582,-0.019076500865498582,-0.019076500865498582,-0.019076500865498582,-0.019076500865498582
0.08611141362634293,0.08596178113646613,0.0859993966133813,0.0862304168476366,0.08629031616349911,0.08656237412628727,0.08648549005145775,0.08734267068621299,0.08809481146124451,0.08871348742099197,0.08885715257131213,0.088574341639874,0.0885943686974239,0.08882689951836222,0.08919526823234072,0.08951257825613917,0.08960248262057892,0.08945904867401824,0.08947151168839444,0.09020281762385571,0.09005585707362229,0.08506438181953356,0.07276374215051568,0.05935565122958081,0.0534700431922435,0.05761043716945393,0.06559731345253927,0.07173203553315619,0.07532895867690169,0.07852118284837445,0.08212226139613801,0.08519486162064495,0.08767990962033972,0.0895400498834045,0.09165091802257083,0.09380224300741266,0.09635546197999531,0.09896977740972755,0.1015878139593956,0.1041426367996664,0.10607133768245194,0.10617423039401876,0.10706438119620165,0.10523421469393374,0.11290003026903851,0.11575263011704753,0.12062683497387003,0.11652010072715549,0.11539228709534599,0.11506694968452648,0.11545497391519254,0.11554014267524389,0.11530721324670451,0.11554879178413574,0.11602220654212331,0.11717245040505084,0.11832136636149423,0.12036099191660622,0.12301361872803386,0.12557799825687027,0.12833432294415603,0.13114304366077206,0.13316880666350087,0.13179428167249482,0.12636822150330362,0.11965448918506028,0.11449598619471485,0.1115121023393347,0.10963392060009987,0.10868163076537024,0.10830859729042944,0.10845509866527851,0.10831685238331086,0.1081659005304079,0.10822979764713991,0.10884017480668272,0.10981647539419472,0.11066584678781592,0.11121504943582967,0.11160535013422099,0.1123665672636798,0.11354230761883852,0.1150347733590445,0.11640384796267053,0.11759092996624884,0.11896993355520742,0.12038489489358152,0.1221081596564403,0.12378177925014841,0.12567675580829446,0.1279477818648527,0.13027800802985234,0.13310986372703218,0.13557405420527635,0.13837199177986972,0.14109517868675864,0.14442488788298144,0.14715699957503375,0.14926228533254712,0.15054849960388694,0.15123335682261801,0.15044221775652128,0.14073454102614308,0.09652012387551907,0.040743388657915214,-0.006506561755873427,-0.019076500865498582,-0.019076500865498582,-0.019076500865498582,-0.019076500865498582,-0.019076500865498582,-0.019076500865498582,-0.019076500865498582,-0.019076500865498582,-0.019076500865498582,-0.019076500865498582,-0.019076500865498582,-0.019076500865498582,-0.019076500865498582,-0.019076500865498582,-0.019076500865498582,-0.019076500865498582,-0.019076500865498582,-0.019076500865498582,-0.019076500865498582,-0.019076500865498582,-0.019076500865498582,-0.019076500865498582,-0.019076500865498582,-0.019076500865498582,-0.019076500865498582,-0.019076500865498582,-0.019076500865498582,-0.019076500865498582,-0.019076500865498582,-0.019076500865498582,-0.019076500865498582,-0.019076500865498582
0.0903086327271877,0.09019546112300071,0.09013722738042232,0.09013117261909281,0.08994955863151054,0.08972233445279315,0.08921981866990555,0.08954449418536248,0.08983819343622657,0.0901071122398124,0.09033193149106422,0.09065274957962446,0.09164492290239565,0.09262337572044914,0.09385762553565342,0.0944767177121455,0.09471913341096809,0.09460370268394443,0.09534775964513054,0.09724766584813546,0.09757859382544126,0.09157438815796344,0.07712034497730881,0.061174989807890844,0.05585470030321879,0.061845630093061627,0.07258955491712205,0.07895625904576385,0.08228852970460637,0.08466028381190065,0.08783253211836461,0.09065360088229628,0.09293684018950293,0.09426898989082558,0.09585869909442074,0.09783280084012423,0.10058600431949725,0.10313793092141077,0.10538090020735405,0.10733213584914968,0.10894048063172729,0.11080475157690411,0.11118255445568653,0.1073326540642865,0.11063269670084573,0.11113077495570436,0.11495764182581042,0.1109505438415968,0.11051881397994007,0.11082154644248338,0.1111057374702634,0.11114438637536715,0.11176606707224933,0.11283796696581781,0.114299446101667,0.11595524192475341,0.11803772454102521,0.12096672233435993,0.1236309484575604,0.12614817386012084,0.1286066535365016,0.13113971952135045,0.1321534535384842,0.12931605889605455,0.12364169303191161,0.11797269442649537,0.11399707745986613,0.11157439650007114,0.10970069093601502,0.10888650755580219,0.10886511919588016,0.1092247878470154,0.10952820690820175,0.10998507594062604,0.11075616247126475,0.1119985459611814,0.11332109323994591,0.11437543647766389,0.11499138323399549,0.1154696461926502,0.11621633220647991,0.11723535026298032,0.11804943849881253,0.11857038264865205,0.11925231941727558,0.12056604408132539,0.12220984208514865,0.12397396776615428,0.12574894339261464,0.12781569838761414,0.13034845372086196,0.13275754989412789,0.1351510861904571,0.13713756769513807,0.13958907151992697,0.14158137108606955,0.14348960979665606,0.14443103935595436,0.14476408767942792,0.14434279155814944,0.14328787084088548,0.13978449463004755,0.11460486465011403,0.06092392471854581,0.009984515707803123,-0.019076500865498582,-0.019076500865498582,-0.019076500865498582,-0.019076500865498582,-0.019076500865498582,-0.019076500865498582,-0.019076500865498582,-0.019076500865498582,-0.019076500865498582,-0.019076500865498582,-0.019076500865498582,-0.019076500865498582,-0.019076500865498582,-0.019076500865498582,-0.019076500865498582,-0.019076500865498582,-0.019076500865498582,-0.019076500865498582,-0.019076500865498582,-0.019076500865498582,-0.019076500865498582,-0.019076500865498582,-0.019076500865498582,-0.019076500865498582,-0.019076500865498582,-0.019076500865498582,-0.019076500865498582,-0.019076500865498582,-0.019076500865498582,-0.019076500865498582,-0.019076500865498582,-0.019076500865498582,-0.019076500865498582
0.0888569893355794,0.08850993826403183,0.08850902032681045,0.08864653993445287,0.08893373200497387,0.08954379069186935,0.09047443702731671,0.09161619820424129,0.09243730687464169,0.09300192745894294,0.0935463496547483,0.09392844247665973,0.09437214726733476,0.09436580893260207,0.09439043322685087,0.09400722581712366,0.09410675203573154,0.09440483450347038,0.09607179007920687,0.09837126573058069,0.09870207801373385,0.09216119352842107,0.0766938281758395,0.058540262876097794,0.05226888012667343,0.058880014126419626,0.07212731469621177,0.07979273124239805,0.08342154424130277,0.0854253395602874,0.08799203808947467,0.09072354924962303,0.09290810189794504,0.09455703215132549,0.09566971009234633,0.0971852866481661,0.09918781161632505,0.10137866456432645,0.10357885786603459,0.10540844080316866,0.10669801305070646,0.10780300617425446,0.10817286260119217,0.1059680017219338,0.10954878542229987,0.11442742976230436,0.1202988624520364,0.11969178619437894,0.11765201316617734,0.11727166810356685,0.11728818736912076,0.11775800727482102,0.1186657879064919,0.11953109287753444,0.12043462713680203,0.12155055326665287,0.12323965342243627,0.12594023641433325,0.1283890172950282,0.1308989806001421,0.13319459357957078,0.1347321421392973,0.13385951663488294,0.12891004687262592,0.12268518828484036,0.11767441846925766,0.11468995933152942,0.11259541587825318,0.11079663421633591,0.11013043616038659,0.11023579854915254,0.11066590327061017,0.11107386094148963,0.11175865643534975,0.1125603366221606,0.11355819303516732,0.11452834200678473,0.11557678931149841,0.11640087515481257,0.11721966650709523,0.11802591411738306,0.11905220167579696,0.11991278038609268,0.1207132687711051,0.12167238776258227,0.12295962820831727,0.12458169639946187,0.126242187579697,0.1282154229318394,0.1303939466327522,0.13281846035066433,0.1351307832006474,0.1375820250777824,0.14028707044959934,0.14322120437960137,0.14551429333721178,0.14717469557295787,0.14845374937806757,0.14977380553698016,0.15107950852355284,0.15142864888426227,0.1427419136222432,0.09953981452559647,0.042842269981211954,-0.005178436215733146,-0.019076500865498582,-0.019076500865498582,-0.019076500865498582,-0.019076500865498582,-0.019076500865498582,-0.019076500865498582,-0.019076500865498582,-0.019076500865498582,-0.019076500865498582,-0.019076500865498582,-0.019076500865498582,-0.019076500865498582,-0.019076500865498582,-0.019076500865498582,-0.019076500865498582,-0.019076500865498582,-0.019076500865498582,-0.019076500865498582,-0.019076500865498582,-0.019076500865498582,-0.019076500865498582,-0.019076500865498582,-0.019076500865498582,-0.019076500865498582,-0.019076500865498582,-0.019076500865498582,-0.019076500865498582,-0.019076500865498582,-0.019076500865498582,-0.019076500865498582,-0.019076500865498582,-0.019076500865498582,-0.019076500865498582
0.09535021783438474,0.09550310387671203,0.09578502829684765,0.0959218143109795,0.09560383870152353,0.09536394509620334,0.09536409972101381,0.09532322022429143,0.09505084362913424,0.09460932089359352,0.09466585732483944,0.09489603869078253,0.09548722054095254,0.09567069632430578,0.09570778973205588,0.09545319619129712,0.09577698531053878,0.09622512039458572,0.09821804155964813,0.10111298381434045,0.1024450831958124,0.0971317009526407,0.08253819090536281,0.06339497804353285,0.056200124397595724,0.062244908905105895,0.07702221297445137,0.08563310771905537,0.08973325969682447,0.09180684751476276,0.09409084573704109,0.09633175395431667,0.09789963811370585,0.09908919386920978,0.09991970920722706,0.10146587082204628,0.1033866362202995,0.1057057496649276,0.10805463033583979,0.11035565644005865,0.11224430089515625,0.11371854583501484,0.1138815277753541,0.11247828587970513,0.10970579358545546,0.11163832904514431,0.11335573392728349,0.1155850791294948,0.11355282886480508,0.11389258903354414,0.1145887532864459,0.11564089592927071,0.11667187555025979,0.1181236545652948,0.12004126248804634,0.12191096947518401,0.12413805913512184,0.1266997019960324,0.12877472665823309,0.13064472689320902,0.131999202509489,0.13265277884480314,0.13035400516075,0.12535735886708713,0.12052975977155428,0.11729573904584638,0.1152687754642496,0.11274322376066678,0.11120681085578138,0.1108768213864112,0.11155334244375482,0.11228580240518371,0.11314651429756048,0.11422133190789434,0.11531006278038289,0.11630313537741224,0.11705129693253813,0.11787605187053474,0.1183982881180309,0.11906752362291675,0.11971026487569536,0.1207170725599636,0.12156294595565699,0.12252611757660217,0.12363664752284177,0.12494295233133043,0.1264059431077017,0.12791698664932227,0.13011650933128519,0.13246841948596055,0.13499620489010525,0.13724089651251326,0.1395302695215127,0.1419230526172033,0.14391692691713268,0.14485544429859598,0.14502192070433206,0.14484880353894114,0.1443423724496644,0.1424804990873953,0.13447937663651327,0.10915506311470631,0.05636077348110363,0.009688910014217124,-0.019076500865498582,-0.019076500865498582,-0.019076500865498582,-0.019076500865498582,-0.019076500865498582,-0.019076500865498582,-0.019076500865498582,-0.019076500865498582,-0.019076500865498582,-0.019076500865498582,-0.019076500865498582,-0.019076500865498582,-0.019076500865498582,-0.019076500865498582,-0.019076500865498582,-0.019076500865498582,-0.019076500865498582,-0.019076500865498582,-0.019076500865498582,-0.019076500865498582,-0.019076500865498582,-0.019076500865498582,-0.019076500865498582,-0.019076500865498582,-0.019076500865498582,-0.019076500865498582,-0.019076500865498582,-0.019076500865498582,-0.019076500865498582,-0.019076500865498582,-0.019076500865498582,-0.019076500865498582,-0.019076500865498582,-0.019076500865498582
0.09109056054927292,0.09142741052212854,0.09175511582122853,0.09207847844212586,0.09159503545783831,0.09155520794232523,0.09117621714087058,0.0909401114261852,0.09023366829176717,0.08961863560969512,0.08948884040382865,0.08934798957948509,0.08928751040218236,0.08863024982176368,0.0883789690189626,0.08848251419594208,0.08955628656881201,0.09068511846879018,0.09365900839614502,0.09793646001987098,0.10098596454755314,0.09776301280418606,0.08530812730364128,0.06608675734752523,0.055588479057307606,0.05898086698835709,0.07325343308913983,0.08404992180638543,0.08916817538565304,0.09195929907651441,0.09387356749412339,0.0956739340269536,0.09647232781675753,0.09786990696689615,0.09902656178381039,0.10094759042696053,0.10279621774900011,0.10447637819670577,0.10632128643438778,0.10801047955994392,0.10997899979152712,0.11144804793521541,0.11242786184493862,0.11214295045767662,0.1057276757583819,0.10144617097991766,0.10095304248652871,0.10904883917437039,0.11572017078827797,0.12011351799497902,0.12187503708061771,0.12318218438404666,0.1237270589209069,0.12469129389489478,0.12592122094810346,0.12757152401835575,0.12878287328479768,0.13029286058289927,0.13201052826651533,0.1338082669682498,0.13462166821383303,0.1334735825907,0.12978277466081645,0.12470721594907871,0.12076443524691562,0.11817112290991182,0.11633952402500354,0.11395528420441815,0.11272531746261594,0.11244199858518394,0.11312109727899984,0.11410117726987298,0.11523076487165355,0.11626509549671392,0.1170264274336552,0.11771187161421261,0.11842775326370825,0.1191527121341151,0.1195755949390687,0.12017351916401495,0.12092911800419104,0.12204362167411265,0.1231088916963302,0.12423556217927809,0.12551888636591224,0.1269409908253894,0.1285070281136099,0.13032121471407893,0.13265219645210827,0.13505327519679536,0.13734459816311906,0.13950742000590516,0.14187451621306585,0.14409245397387033,0.14568112934674393,0.14635938477104998,0.14660067863800783,0.146866272525752,0.14731295622422472,0.14589625018101518,0.12618710119061474,0.08489571886716168,0.03104798891820884,-0.00471249206181657,-0.019076500865498582,-0.019076500865498582,-0.019076500865498582,-0.019076500865498582,-0.019076500865498582,-0.019076500865498582,-0.019076500865498582,-0.019076500865498582,-0.019076500865498582,-0.019076500865498582,-0.019076500865498582,-0.019076500865498582,-0.019076500865498582,-0.019076500865498582,-0.019076500865498582,-0.019076500865498582,-0.019076500865498582,-0.019076500865498582,-0.019076500865498582,-0.019076500865498582,-0.019076500865498582,-0.019076500865498582,-0.019076500865498582,-0.019076500865498582,-0.019076500865498582,-0.019076500865498582,-0.019076500865498582,-0.019076500865498582,-0.019076500865498582,-0.019076500865498582,-0.019076500865498582,-0.019076500865498582,-0.019076500865498582,-0.019076500865498582
0.09084806159269175,0.09176756671784696,0.09196086862631647,0.09153602839857385,0.08996155987909889,0.08868536894549976,0.08716834561515102,0.086523677485591,0.08588967709247587,0.08558727686563745,0.08576662755600056,0.08639901400102927,0.08737102551513379,0.08756708660629833,0.08810088821596815,0.088671977217786,0.09006929328682226,0.09168277665462385,0.095708433374929,0.10119434130364899,0.10534426285977631,0.103681709444072,0.09344409803892796,0.07521645264575319,0.06141696895734081,0.061729112049058614,0.07451398502876559,0.08786433872264596,0.09455765580176889,0.09811824906177916,0.10025590541741151,0.10205316436325626,0.10298590891351019,0.10398665532995363,0.10518073157130625,0.10729839195653196,0.10938762168150272,0.11089055705846261,0.1122122323256001,0.11397685703890939,0.11598215732653222,0.11729679289473764,0.11771773747157724,0.11642530360142724,0.10758408581031552,0.09622634975970498,0.09028552241478464,0.09629284591459542,0.10797173987613648,0.11694522973196214,0.12160650334065036,0.12347489077825531,0.12396066902557229,0.1250706229523326,0.1265816764015865,0.1285488404326446,0.13015254046650354,0.13114221647890817,0.131962376456791,0.13243809386170277,0.1321891294648282,0.1299448778977171,0.12596636871068215,0.1218076492554683,0.11924253883971372,0.11758789697566371,0.1160413989160763,0.11410619194142341,0.1132205160156339,0.11337078272202722,0.11423387017616432,0.11527044560798376,0.11648071529667592,0.11755290584562741,0.11854487481445018,0.11930871417364382,0.12011904604151741,0.12064617979875296,0.12106767787080745,0.12172729495399118,0.12272576836852273,0.12372852403048501,0.12474627301728727,0.12585074155604944,0.12719353078065637,0.12875253631597502,0.13034884851830333,0.13224331536922485,0.13431007114068758,0.13654354433190857,0.1387349551661125,0.14091202841741626,0.14293363860525793,0.14424625396015986,0.14466157575689045,0.14445650442664537,0.14429639524649554,0.1439074116353332,0.14244384908726987,0.13337213243470683,0.09441373399025346,0.04142135479239259,-0.003947266079912443,-0.019076500865498582,-0.019076500865498582,-0.019076500865498582,-0.019076500865498582,-0.019076500865498582,-0.019076500865498582,-0.019076500865498582,-0.019076500865498582,-0.019076500865498582,-0.019076500865498582,-0.019076500865498582,-0.019076500865498582,-0.019076500865498582,-0.019076500865498582,-0.019076500865498582,-0.019076500865498582,-0.019076500865498582,-0.019076500865498582,-0.019076500865498582,-0.019076500865498582,-0.019076500865498582,-0.019076500865498582,-0.019076500865498582,-0.019076500865498582,-0.019076500865498582,-0.019076500865498582,-0.019076500865498582,-0.019076500865498582,-0.019076500865498582,-0.019076500865498582,-0.019076500865498582,-0.019076500865498582,-0.019076500865498582,-0.019076500865498582,-0.019076500865498582
0.08422616076872073,0.08409312075924871,0.08375949818895771,0.08352085940620331,0.08286963878109856,0.08224350929825337,0.0811649423437124,0.08098857784408246,0.08143097319369492,0.0823227484079833,0.0833087987804455,0.08418327315299112,0.08516954913012756,0.08562082321289005,0.08683139292118511,0.08788801997311109,0.08974452966057175,0.09217145298129908,0.09723879611253528,0.102853532187731,0.10655621270025928,0.10517285886739669,0.09683417092074617,0.08045230109969685,0.06483230434144807,0.06214013347342249,0.07215859711750351,0.08588824588857591,0.09345192726470548,0.09755435860191883,0.10010478532406664,0.1017140935346219,0.10214166614105279,0.10280609063187726,0.10404895177617973,0.10650327342841666,0.10831863619843553,0.10934335402727055,0.11012948944582794,0.1112342754977411,0.11268060385018737,0.11383296900177767,0.11439782573502222,0.11281187331438516,0.10318574243232216,0.08668847856393375,0.07655627788981688,0.0812156586775947,0.09924842907851122,0.11552468586737094,0.12521524231540992,0.12897037705609138,0.12999509980154436,0.13116959275706913,0.13198536041007908,0.13314574764464826,0.1335940700952774,0.1340683914132545,0.13384232410425062,0.13367444723499,0.13189150689304197,0.12860722553281193,0.12456583483829974,0.12122797376199637,0.11937089298059836,0.11772946777194483,0.11638938501937028,0.11517270141531388,0.11434556147004156,0.11440808553765583,0.11505646196509231,0.11613924412575789,0.11726410640547846,0.11810658446730826,0.11891386075823322,0.1195685402944805,0.12017789527552522,0.12046838967941126,0.12076351401178856,0.12149375325422591,0.12276688729946576,0.12396995741949722,0.12512718878051593,0.12638172614833923,0.1278292750284967,0.12960603330521178,0.13152893371505903,0.13376731173833142,0.13580255166627098,0.1377703965412027,0.13934436949509477,0.14104402909081615,0.14247824718500554,0.1433482234046591,0.1435116363407012,0.1432327447351049,0.14320262505978618,0.14297177247606743,0.14062367093786032,0.11633778711220058,0.06782444460893011,0.016109983949340607,-0.013691894872365886,-0.019076500865498582,-0.019076500865498582,-0.019076500865498582,-0.019076500865498582,-0.019076500865498582,-0.019076500865498582,-0.019076500865498582,-0.019076500865498582,-0.019076500865498582,-0.019076500865498582,-0.019076500865498582,-0.019076500865498582,-0.019076500865498582,-0.019076500865498582,-0.019076500865498582,-0.019076500865498582,-0.019076500865498582,-0.019076500865498582,-0.019076500865498582,-0.019076500865498582,-0.019076500865498582,-0.019076500865498582,-0.019076500865498582,-0.019076500865498582,-0.019076500865498582,-0.019076500865498582,-0.019076500865498582,-0.019076500865498582,-0.019076500865498582,-0.019076500865498582,-0.019076500865498582,-0.019076500865498582,-0.019076500865498582,-0.019076500865498582,-0.019076500865498582
0.08746937906868432,0.08735702302089615,0.08707655831712999,0.08703935616881803,0.08702607212360874,0.08654130824373492,0.08577446713099832,0.08566124841558574,0.08719179008198709,0.08918852455838015,0.09096296962147504,0.09207023188749887,0.09295352820619765,0.09322537679082363,0.09390824215944656,0.09433111144493589,0.09557388199438449,0.09818937918586991,0.10338554129758892,0.10852766437879224,0.11148215910032074,0.11027989435879812,0.10368674947341616,0.08939070192765441,0.07340897969878465,0.06822727035267766,0.0755524925602717,0.08857337412221798,0.09694079997804754,0.1022221292121461,0.10643336572882188,0.10922478847246521,0.11061697983350159,0.11115205265997193,0.11203019232752051,0.11379412961340017,0.11520465640195275,0.11638314730593938,0.11709578083269814,0.11807477853500545,0.11920337831222746,0.12076942080495234,0.12222608529603339,0.12254790873016379,0.11612300426829684,0.10089275027396183,0.08508523662110538,0.07946339422737125,0.0903129804539695,0.10827360261272896,0.12259802417217458,0.1292537305016087,0.13031682436307795,0.1312341987424155,0.13194896936889136,0.13283255002210012,0.133189905596617,0.13296676068407307,0.13139560105064518,0.12984804320878982,0.12782395504341,0.12527056188499927,0.12223222163439103,0.11979423496338361,0.11881434114729988,0.11773656401913349,0.11686302198539654,0.11603585627282494,0.11534360053111387,0.11546697476297363,0.11609852198936942,0.11726037244022229,0.11837605190577355,0.11932726922656217,0.12036127914388846,0.12095758193559443,0.12129227872124823,0.12138473545015312,0.12172108934142166,0.12262290416731957,0.12384586523651366,0.12513375997528253,0.12635578217129453,0.1278121025951426,0.12930084331700653,0.13094088314910152,0.1325466625762613,0.1342838550171064,0.1359058804444895,0.13742535602395958,0.13844837173588312,0.13998989077581345,0.14108220958958337,0.14189175449484,0.1419220716593054,0.1422621241218781,0.1435164605483032,0.14447555214978966,0.13660329723226586,0.09390605954847407,0.03918990186504471,-0.007020746259413204,-0.019076500865498582,-0.019076500865498582,-0.019076500865498582,-0.019076500865498582,-0.019076500865498582,-0.019076500865498582,-0.019076500865498582,-0.019076500865498582,-0.019076500865498582,-0.019076500865498582,-0.019076500865498582,-0.019076500865498582,-0.019076500865498582,-0.019076500865498582,-0.019076500865498582,-0.019076500865498582,-0.019076500865498582,-0.019076500865498582,-0.019076500865498582,-0.019076500865498582,-0.019076500865498582,-0.019076500865498582,-0.019076500865498582,-0.019076500865498582,-0.019076500865498582,-0.019076500865498582,-0.019076500865498582,-0.019076500865498582,-0.019076500865498582,-0.019076500865498582,-0.019076500865498582,-0.019076500865498582,-0.019076500865498582,-0.019076500865498582,-0.019076500865498582,-0.019076500865498582
0.08796534692469406,0.08794256240042078,0.08820796870999872,0.08899285395071753,0.08958854361091359,0.08934252661711044,0.08873445087335538,0.08839287429782855,0.08946022227952244,0.0908291719826788,0.09222678804386536,0.09297406432717766,0.09353633083302534,0.09360422822565587,0.09456596530038217,0.09589596971636129,0.09809430564242715,0.10124709315097341,0.10574908227500221,0.10981677205824275,0.11170416627247447,0.11060923457022809,0.10581587749673196,0.094111275082916,0.07961588398022162,0.07263760678051381,0.07706279163878968,0.08743170405559997,0.09501540067825137,0.10035188832633893,0.10498286646868374,0.10820114222287618,0.10976019948581145,0.11026023846242185,0.11115293546296376,0.11229230497165953,0.11334419013825095,0.11414000328160025,0.11483046773433261,0.11521564484427346,0.11620886004902956,0.11824343514527945,0.12061737701240824,0.12175486795559923,0.11693394400154362,0.10264647162547942,0.08542193480547378,0.0765596609907815,0.08413988344394643,0.10363736077938918,0.12111237258758933,0.13199819522107065,0.1345645839054835,0.1354715412105411,0.13532533862203805,0.13487803020829414,0.13399678039945795,0.1328601232885517,0.1306354724521855,0.12874864591962498,0.12671456604788922,0.12450562213763615,0.12196432264891019,0.12004052123459513,0.11938467630483111,0.11880313449336356,0.1183295111316199,0.11778018577743143,0.1171596970918852,0.11715773081613293,0.11769565977453639,0.11867105442095614,0.11952249030233017,0.12018096185118565,0.12087318549869588,0.12126564307575957,0.12142137999513317,0.12159201973168039,0.12200033400547113,0.12312534421014891,0.12451881269335532,0.12608290759485727,0.12739109995895775,0.12884968448993528,0.13040235846853138,0.13211551338582148,0.1337860832587117,0.1354611641742936,0.13695008507667636,0.13813369933494507,0.13850436480238157,0.13929945951459066,0.13976656848146318,0.14033449166416356,0.1405965812465274,0.14094152974778557,0.1411840193838575,0.13572287101336847,0.11115677666813659,0.05788037195725113,0.009867072561181094,-0.019076500865498582,-0.019076500865498582,-0.019076500865498582,-0.019076500865498582,-0.019076500865498582,-0.019076500865498582,-0.019076500865498582,-0.019076500865498582,-0.019076500865498582,-0.019076500865498582,-0.019076500865498582,-0.019076500865498582,-0.019076500865498582,-0.019076500865498582,-0.019076500865498582,-0.019076500865498582,-0.019076500865498582,-0.019076500865498582,-0.019076500865498582,-0.019076500865498582,-0.019076500865498582,-0.019076500865498582,-0.019076500865498582,-0.019076500865498582,-0.019076500865498582,-0.019076500865498582,-0.019076500865498582,-0.019076500865498582,-0.019076500865498582,-0.019076500865498582,-0.019076500865498582,-0.019076500865498582,-0.019076500865498582,-0.019076500865498582,-0.019076500865498582,-0.019076500865498582,-0.019076500865498582
0.0917043495904573,0.0921748326096432,0.09280925984383377,0.09367383906431191,0.09438242616019199,0.09471536575343552,0.09498572363741295,0.09488267040439677,0.09527710157514073,0.09565108148945785,0.09705234328142101,0.0986919801220024,0.10046718115048155,0.10117486188380248,0.10174344926471943,0.10213574712448685,0.10339164690390305,0.10629697221783142,0.11026492454098158,0.1138105821895492,0.11512861437533416,0.11465492862152457,0.11185299493886834,0.10363463745772311,0.09117134022350305,0.08245897251917608,0.08345376223877032,0.09103656848912138,0.09816397211223853,0.10330120588173718,0.10809710854872763,0.11241819189958155,0.11581589133010296,0.1175687329052613,0.11871681471418156,0.11906889605282626,0.11988145957212995,0.1205185029257895,0.1214675380102609,0.1224451537771345,0.12439590106292898,0.12694929565939028,0.1296348319952541,0.13155698083549652,0.12987567200432232,0.12035333904284515,0.1053570523091777,0.09383517855093816,0.0943549438004712,0.10747003568349395,0.12170437762142439,0.13161684280930028,0.13400568794255244,0.13384755509090032,0.1328656973066308,0.13169446525673512,0.1307776199652866,0.12927725122108838,0.12644460725863255,0.12407926023041457,0.12267004845706456,0.12172240106435923,0.12048261748069694,0.11930342245979345,0.1192671851258012,0.1191519467131274,0.11875596798490011,0.11805184849014183,0.11750044096951123,0.11772398385899244,0.11840654553936225,0.1192180608318596,0.11987260296208896,0.12053886631208746,0.12135820970359605,0.12183787769020454,0.12219535629001718,0.12257809192390459,0.12330088586640688,0.12461196625038358,0.1260062799051589,0.1276047931578863,0.12893025945058764,0.13030225505843107,0.13170196480251317,0.13333027588314691,0.1348815691313982,0.13632244383747907,0.13743853790277163,0.13825269117284383,0.13849603597782598,0.13881489170329803,0.13908981838297055,0.13935620930884024,0.1397014507224475,0.14022725696965327,0.139599192649199,0.11720113505210662,0.07700954997994869,0.024889996870352454,-0.0058538786309420675,-0.019076500865498582,-0.019076500865498582,-0.019076500865498582,-0.019076500865498582,-0.019076500865498582,-0.019076500865498582,-0.019076500865498582,-0.019076500865498582,-0.019076500865498582,-0.019076500865498582,-0.019076500865498582,-0.019076500865498582,-0.019076500865498582,-0.019076500865498582,-0.019076500865498582,-0.019076500865498582,-0.019076500865498582,-0.019076500865498582,-0.019076500865498582,-0.019076500865498582,-0.019076500865498582,-0.019076500865498582,-0.019076500865498582,-0.019076500865498582,-0.019076500865498582,-0.019076500865498582,-0.019076500865498582,-0.019076500865498582,-0.019076500865498582,-0.019076500865498582,-0.019076500865498582,-0.019076500865498582,-0.019076500865498582,-0.019076500865498582,-0.019076500865498582,-0.019076500865498582,-0.019076500865498582
0.09302891916917179,0.09369229429054056,0.09436560921192584,0.0949478513370704,0.09536651565885809,0.09616244663419832,0.09741097964947536,0.09840039054129408,0.09880937506181828,0.09897078971106292,0.0995428375150933,0.1001036870917194,0.10020062866390334,0.09981932549174602,0.0994604167040417,0.09948156844976327,0.10034669115726493,0.103306357182567,0.10773299505587344,0.11168412772179051,0.11355327419464939,0.11373706514927533,0.11249090261916243,0.10786698171166298,0.09841162483059827,0.0888082058290243,0.08558903865182399,0.08962310137348131,0.09595014676797882,0.10063758836143076,0.10455950489731795,0.10862420368566739,0.11237630684079648,0.11435264491586809,0.11583331322998178,0.11693112250478405,0.11843800037037888,0.11964589137918401,0.12099196275605262,0.12238495969262,0.12444112729021134,0.12642887567819344,0.12865761331882433,0.13048515622357534,0.13038290849959136,0.12587256942709213,0.11672824875050895,0.10950395868459192,0.10879895344042315,0.116571502455368,0.12543779361552115,0.1321129434211695,0.13395518229328668,0.1334745194512216,0.13206538042945043,0.13066415087422587,0.12957519323004404,0.1278159100448441,0.12519197568429588,0.12318513937561072,0.12174719091103992,0.12109456849564014,0.12009438171764912,0.1196273571375588,0.11959943928772236,0.11960324396090376,0.1191341837540234,0.11835640535382672,0.11797998121228394,0.11838445576225617,0.11895585465143366,0.11929769053260426,0.11957016420624944,0.1199768091877598,0.12062650863974621,0.12102316301228708,0.12171939493961922,0.1225609149657837,0.12384879484700854,0.12551179541468402,0.12719618582244763,0.1288027983702136,0.12991456992485012,0.131123979374725,0.13243396002401395,0.13398937488968646,0.13542822114557015,0.1365742925477658,0.13727580920076435,0.1374642878520594,0.1374975595637881,0.13755326806532184,0.13788306957403493,0.1383281358322962,0.1394356180006797,0.1403084448066383,0.13394248995219382,0.09196777623464923,0.03858823596302784,-0.007700000092106477,-0.019076500865498582,-0.019076500865498582,-0.019076500865498582,-0.019076500865498582,-0.019076500865498582,-0.019076500865498582,-0.019076500865498582,-0.019076500865498582,-0.019076500865498582,-0.019076500865498582,-0.019076500865498582,-0.019076500865498582,-0.019076500865498582,-0.019076500865498582,-0.019076500865498582,-0.019076500865498582,-0.019076500865498582,-0.019076500865498582,-0.019076500865498582,-0.019076500865498582,-0.019076500865498582,-0.019076500865498582,-0.019076500865498582,-0.019076500865498582,-0.019076500865498582,-0.019076500865498582,-0.019076500865498582,-0.019076500865498582,-0.019076500865498582,-0.019076500865498582,-0.019076500865498582,-0.019076500865498582,-0.019076500865498582,-0.019076500865498582,-0.019076500865498582,-0.019076500865498582,-0.019076500865498582,-0.019076500865498582
0.09796509721095151,0.09882670614658684,0.09951248065612497,0.10017873614754545,0.10122486140567603,0.1027802156809492,0.10394630673523973,0.10371161290918782,0.10249440377664401,0.10161994003831097,0.101554292431671,0.10175376680224159,0.10137082293174039,0.1009918294295005,0.10024385305477665,0.09969732290196542,0.09990151882001445,0.10318023879154953,0.10906237468345187,0.11449761144384914,0.11753869830607269,0.11826225244241716,0.1181078078940491,0.11630884133481535,0.11042393127843671,0.10157015754097126,0.09471507281206815,0.09459327882592165,0.09933578696989884,0.10414171545526474,0.1074228000347381,0.11066055338501653,0.11452835749877949,0.1177989361541665,0.12046708638460796,0.12325410014408653,0.12522530596034354,0.1267221954218738,0.12783410346010618,0.1294897633918354,0.13164453150065902,0.13309465914270002,0.13474220834236558,0.1359614603610229,0.13625552958700732,0.1336386561560619,0.12807372866317274,0.12350462598119699,0.12193009304877385,0.12372046190681502,0.12595753889776556,0.1274291595012736,0.12792454164492206,0.12705342692000296,0.1254769825136824,0.12440157953263133,0.12395791364677038,0.12352358112575319,0.12210375699290299,0.12118231891316032,0.1203449301174011,0.12011028255174291,0.11946617693026931,0.11948580319664692,0.11969211272540507,0.11954532429409849,0.11882696965214938,0.11792637814092721,0.11770363927436467,0.11823448340767426,0.11896672172766509,0.11938059878124173,0.11979809069502012,0.12027143699208181,0.12101441787494359,0.121580844096108,0.12251301594186731,0.12355457051263147,0.12493405637859879,0.12643042979648106,0.12791020956380583,0.129453008430823,0.1306212576861529,0.1318673793129995,0.13282421957089469,0.13394443837912431,0.13472789325755055,0.13531135941373873,0.13564084678129443,0.13568785414044057,0.13614245023946064,0.1366696544019069,0.13777824892916424,0.13862991258729626,0.13903364525011985,0.1343270784430354,0.11112703346386636,0.058510891485525074,0.010535719230784975,-0.019076500865498582,-0.019076500865498582,-0.019076500865498582,-0.019076500865498582,-0.019076500865498582,-0.019076500865498582,-0.019076500865498582,-0.019076500865498582,-0.019076500865498582,-0.019076500865498582,-0.019076500865498582,-0.019076500865498582,-0.019076500865498582,-0.019076500865498582,-0.019076500865498582,-0.019076500865498582,-0.019076500865498582,-0.019076500865498582,-0.019076500865498582,-0.019076500865498582,-0.019076500865498582,-0.019076500865498582,-0.019076500865498582,-0.019076500865498582,-0.019076500865498582,-0.019076500865498582,-0.019076500865498582,-0.019076500865498582,-0.019076500865498582,-0.019076500865498582,-0.019076500865498582,-0.019076500865498582,-0.019076500865498582,-0.019076500865498582,-0.019076500865498582,-0.019076500865498582,-0.019076500865498582,-0.019076500865498582,-0.019076500865498582
0.10311252075113649,0.10404082800525484,0.1040300528468972,0.10362687759741816,0.10295955465821788,0.10244712176114222,0.1015303735019754,0.09987865318445308,0.09817266689182155,0.09748716140866784,0.09715791604300153,0.09652235974414074,0.09524658595285848,0.09479259721008249,0.09479583047299878,0.09538744125883522,0.0968429116939542,0.10115193601225186,0.10815069636519871,0.11428695000823275,0.11777018266354083,0.11803883714686911,0.11792529374831262,0.11679181043867279,0.11344145621751123,0.10719046947877539,0.09993678164852421,0.09654509614104545,0.09755232068888813,0.10130242179353854,0.10444644745227499,0.10672741922386388,0.10890509762559164,0.11154712287773359,0.11471307074813265,0.1187565678135892,0.1216280953789529,0.12411077693987892,0.12579368192721482,0.12756946635441108,0.12946308898023454,0.1305715532369534,0.13181938007973965,0.1321780305236409,0.13177652388960426,0.12897545357674006,0.12531907820192997,0.12211104526277386,0.12125321148765054,0.12118203579895258,0.12133665184517509,0.12109564105730791,0.12074419929834876,0.12013621416265777,0.11932163638205749,0.1194487309545764,0.11992454287134155,0.12053395321126611,0.12074562049264333,0.1210655494373418,0.12097887628457218,0.12061678116879687,0.12013440253423699,0.12013611807175748,0.12033078827142435,0.12000358265025421,0.11940335180110585,0.11872287878666495,0.11883143525547431,0.11928982699165383,0.11978146929465115,0.1199682822961529,0.12036482838719867,0.12087972010845088,0.12163311348749123,0.12244004267052878,0.12376815404165836,0.12525532459897276,0.1267433868955862,0.12795694139307942,0.1291659691216383,0.13043514716088117,0.13139995962363638,0.13211602474407275,0.1324265104395739,0.1326145507691874,0.13267798150867013,0.13270438693145406,0.1330901122963336,0.13340020097792482,0.13422525161720422,0.13520144006779736,0.1363922238414333,0.13714207978188686,0.13609304364650573,0.1144608199061193,0.07556898062926914,0.024677907456560212,-0.00583125809178483,-0.019076500865498582,-0.019076500865498582,-0.019076500865498582,-0.019076500865498582,-0.019076500865498582,-0.019076500865498582,-0.019076500865498582,-0.019076500865498582,-0.019076500865498582,-0.019076500865498582,-0.019076500865498582,-0.019076500865498582,-0.019076500865498582,-0.019076500865498582,-0.019076500865498582,-0.019076500865498582,-0.019076500865498582,-0.019076500865498582,-0.019076500865498582,-0.019076500865498582,-0.019076500865498582,-0.019076500865498582,-0.019076500865498582,-0.019076500865498582,-0.019076500865498582,-0.019076500865498582,-0.019076500865498582,-0.019076500865498582,-0.019076500865498582,-0.019076500865498582,-0.019076500865498582,-0.019076500865498582,-0.019076500865498582,-0.019076500865498582,-0.019076500865498582,-0.019076500865498582,-0.019076500865498582,-0.019076500865498582,-0.019076500865498582
0.10578134914499726,0.1052805363432463,0.10477894201234818,0.10369651855230333,0.10238183422423994,0.10123564715568445,0.10012812096923607,0.09844128731571268,0.09708783923443143,0.09676708881664528,0.09737200558868664,0.09772269063050225,0.09772636196226529,0.0981518293785763,0.0989133740590578,0.10033091899542274,0.10302746495583712,0.10834213463354596,0.11546627720509266,0.12069310801843723,0.12276940490829433,0.12143594212123278,0.12098743644555787,0.11985736678859525,0.11886097544752983,0.1160540454819575,0.11172813033010637,0.10765524767706042,0.10535721467194606,0.10688409458148394,0.10987549841899032,0.11196102329438858,0.11285700700884871,0.11374807446585769,0.11593627059371203,0.11913254188673754,0.12226160186577598,0.1255367140919587,0.12816648902210478,0.13001987718897093,0.13140874505670785,0.13264709291288213,0.13385686322539078,0.1338764846012341,0.13219966570684155,0.1287126343553949,0.12461973662967674,0.12031800249543834,0.11732406044426501,0.115150947618656,0.1145218823527898,0.11407788318245961,0.11432858721903356,0.11393183201688678,0.11396466830868805,0.11486608090266019,0.1167147413196566,0.11868091162218065,0.11984255883717855,0.12081547843406357,0.12143292002191906,0.12109051438936215,0.12070099229174798,0.12017494751582895,0.12009675077662572,0.11945490413790395,0.11875505108232468,0.11838502743051361,0.11875876551962014,0.11938979325082039,0.1202290604746859,0.12081224912256121,0.121493508049637,0.12206793032500284,0.12291511258203955,0.12403637761072384,0.12532632558635234,0.12654201501245954,0.127463523007119,0.12827665051800702,0.1291255849823597,0.13005187476764976,0.13074099853317714,0.1310374817529505,0.13083797161014224,0.1305021564361044,0.13021316239276615,0.13022915008693428,0.13081110119901393,0.13194137060362254,0.1337875453044963,0.13565170302906104,0.1377266522296654,0.1391738194769127,0.13366159849200143,0.0928560654479688,0.03976531807172309,-0.006953064083697676,-0.019076500865498582,-0.019076500865498582,-0.019076500865498582,-0.019076500865498582,-0.019076500865498582,-0.019076500865498582,-0.019076500865498582,-0.019076500865498582,-0.019076500865498582,-0.019076500865498582,-0.019076500865498582,-0.019076500865498582,-0.019076500865498582,-0.019076500865498582,-0.019076500865498582,-0.019076500865498582,-0.019076500865498582,-0.019076500865498582,-0.019076500865498582,-0.019076500865498582,-0.019076500865498582,-0.019076500865498582,-0.019076500865498582,-0.019076500865498582,-0.019076500865498582,-0.019076500865498582,-0.019076500865498582,-0.019076500865498582,-0.019076500865498582,-0.019076500865498582,-0.019076500865498582,-0.019076500865498582,-0.019076500865498582,-0.019076500865498582,-0.019076500865498582,-0.019076500865498582,-0.019076500865498582,-0.019076500865498582,-0.019076500865498582,-0.019076500865498582
0.10035365539294956,0.0998652780906856,0.09969627629731598,0.09864119569680956,0.09713901924733913,0.09585675781424437,0.09494216923831572,0.09428938449681776,0.09441034135708619,0.09525329717662159,0.09665738717083516,0.09773643565091399,0.09842806853582046,0.09918365395872994,0.09999685115672964,0.1017870613458698,0.10504614440788443,0.11021156369477256,0.11535911319558165,0.11765066715659878,0.11727551000849082,0.11538111915483266,0.11528371895966974,0.11504640189024827,0.11567335206139043,0.11549048472165896,0.11463500432414983,0.11207950004830869,0.10963697869572209,0.10951245593240236,0.11195900289858832,0.11426194013681647,0.11479444470093843,0.11362510939173026,0.1128871684571569,0.11221241792224608,0.11298680656811443,0.11492272613308428,0.11801155740576698,0.12103776725407979,0.12386418316899933,0.12680575803967603,0.12861613077105982,0.12864559737989256,0.12693463824818796,0.12458267505482944,0.1219570909711339,0.11815807335959856,0.11496124982696097,0.11233944580766433,0.1118694017207617,0.11128711862326769,0.11136290512784332,0.11119890755311332,0.1124060130072109,0.1143007752401344,0.11700460995637074,0.1194620479251348,0.12093692967211854,0.12204839188731323,0.1225177879927124,0.12230972527077676,0.12177846613057741,0.12076413494209642,0.12011850529291257,0.11938868802078093,0.11909021133106515,0.11912953188928296,0.11974173977259174,0.12030500077107543,0.12091279070570873,0.12148601653652323,0.1222469442934147,0.12308407432444927,0.12411162030393286,0.12535144387272912,0.12662316022205983,0.12764509418374115,0.12842918042637674,0.128957522558134,0.12940122204756138,0.12951100983807018,0.12942065920179183,0.12888836658263797,0.128197881836633,0.1276420320868534,0.1275143055828825,0.12794240627039732,0.1291022250415539,0.13079410900165167,0.13276771944240884,0.13426882658488126,0.13499844350261253,0.13157932781647583,0.10990480366486012,0.05853023072019527,0.010729615140714526,-0.019076500865498582,-0.019076500865498582,-0.019076500865498582,-0.019076500865498582,-0.019076500865498582,-0.019076500865498582,-0.019076500865498582,-0.019076500865498582,-0.019076500865498582,-0.019076500865498582,-0.019076500865498582,-0.019076500865498582,-0.019076500865498582,-0.019076500865498582,-0.019076500865498582,-0.019076500865498582,-0.019076500865498582,-0.019076500865498582,-0.019076500865498582,-0.019076500865498582,-0.019076500865498582,-0.019076500865498582,-0.019076500865498582,-0.019076500865498582,-0.019076500865498582,-0.019076500865498582,-0.019076500865498582,-0.019076500865498582,-0.019076500865498582,-0.019076500865498582,-0.019076500865498582,-0.019076500865498582,-0.019076500865498582,-0.019076500865498582,-0.019076500865498582,-0.019076500865498582,-0.019076500865498582,-0.019076500865498582,-0.019076500865498582,-0.019076500865498582,-0.019076500865498582
0.09691956057458292,0.09679519619900476,0.09753217095249486,0.09747732555434757,0.09715329305639182,0.09716304469549752,0.09772333574575717,0.09876412389340856,0.10008085014115475,0.10151166405798359,0.10300075363848953,0.10449720947086452,0.1055964440671745,0.10677423160140279,0.10784234625505576,0.10920425660131511,0.11077754940633303,0.11294352356700975,0.11520351492478952,0.11621380216424249,0.11603807200120819,0.11558440490034563,0.1167205357516955,0.11803546634202045,0.1198905477900518,0.12069138555789308,0.12088597443775112,0.12010355134683989,0.11938311298414248,0.11963455236679409,0.12123753587129746,0.12354680876375511,0.12541534496543952,0.1254605143883718,0.12428114136603748,0.12186853275061997,0.12049794451583369,0.12019092456900593,0.12099315511321752,0.12215880020564368,0.12448269697595366,0.12751586147409683,0.1299970813693831,0.12995909995913302,0.12783400480357524,0.12497049165888524,0.1215812360264343,0.11813494297654639,0.11483665438470701,0.11260896515794927,0.1119264877944377,0.11151998774545994,0.11197750373067689,0.11224324191641796,0.1139374939182782,0.11612103794778986,0.11933376835676811,0.12192368607292028,0.12368423655946736,0.1246674181163879,0.12476671741029256,0.12362515264896412,0.12206998313140428,0.12045754104073697,0.11954655379819343,0.1188139903184122,0.11864171264293195,0.11894057183011503,0.11980808389695405,0.12072601549677131,0.12170596916225318,0.12261083272612515,0.123451729280698,0.12418529573457367,0.12508352713560697,0.12616032611832875,0.1270961397082406,0.12778775834728487,0.128233936425109,0.1285475302184057,0.12838908061759613,0.12783255396747803,0.12707592510862512,0.12623482248166942,0.12550453724424981,0.12519493538334775,0.12552501710720443,0.12653432223822256,0.12817016637787942,0.1303244675758801,0.13268162557199914,0.13478954326627796,0.13496595962303348,0.1205616610424085,0.08277839056200163,0.03195301667091566,-0.0049815611041646515,-0.019076500865498582,-0.019076500865498582,-0.019076500865498582,-0.019076500865498582,-0.019076500865498582,-0.019076500865498582,-0.019076500865498582,-0.019076500865498582,-0.019076500865498582,-0.019076500865498582,-0.019076500865498582,-0.019076500865498582,-0.019076500865498582,-0.019076500865498582,-0.019076500865498582,-0.019076500865498582,-0.019076500865498582,-0.019076500865498582,-0.019076500865498582,-0.019076500865498582,-0.019076500865498582,-0.019076500865498582,-0.019076500865498582,-0.019076500865498582,-0.019076500865498582,-0.019076500865498582,-0.019076500865498582,-0.019076500865498582,-0.019076500865498582,-0.019076500865498582,-0.019076500865498582,-0.019076500865498582,-0.019076500865498582,-0.019076500865498582,-0.019076500865498582,-0.019076500865498582,-0.019076500865498582,-0.019076500865498582,-0.019076500865498582,-0.019076500865498582,-0.019076500865498582
0.09502859953146073,0.09601873343048134,0.09734349795809406,0.09814819661419362,0.09871923861825191,0.09930640407170285,0.09975851547810381,0.10020873774734262,0.10077480989762413,0.10153255391630561,0.10271206267332886,0.10453920474727567,0.10630910138470454,0.10739190384789882,0.10745706910659147,0.10661684302767427,0.10601184271294445,0.10629669044191634,0.10779297389476229,0.10951362436009042,0.11067315041740208,0.11218891779279881,0.11402482410262767,0.11610944385422657,0.11775458935559617,0.11835213056913545,0.11789004489048627,0.11746268691134189,0.11858990544095777,0.12054907768578442,0.12290388678540934,0.12554829610573612,0.12891593370934445,0.13180025942068208,0.1329628422001565,0.13203548687673308,0.12995145850987866,0.12733087636471757,0.12489117405529963,0.12249813614021843,0.12178392559770354,0.12278771022368525,0.12512881972960077,0.12543212792308028,0.12379169693468876,0.12099897631709781,0.1183527334620714,0.11559559814326686,0.11303895099962485,0.11147181246017321,0.11124207817989021,0.11160066282791252,0.11237170294713286,0.11372692362243868,0.11587587253236842,0.11848700073518277,0.12121548722806923,0.12344909743517622,0.12538429668399492,0.12631853192842868,0.12590208161617825,0.12413089313278329,0.12222336564348009,0.12075219053889903,0.1199521278595885,0.1194747950100368,0.11969300236969244,0.12028196184137069,0.12120168137645602,0.12206567744820859,0.12281696051309822,0.12363106173787781,0.12435206842266015,0.12514797319626783,0.12578782103957714,0.12666834047834893,0.12729971639156878,0.12779344377329727,0.12799585513730063,0.1279548810026827,0.1274123643747761,0.12644511698877137,0.12561970276392992,0.12490005246628086,0.12421484968210687,0.12395246260221371,0.12458818291204213,0.1262342454809126,0.12867837895390313,0.13130420027291967,0.13389713000970976,0.13566197012693607,0.1308183278983632,0.09742421364086576,0.04544028518189957,-0.0007565452487000236,-0.019076500865498582,-0.019076500865498582,-0.019076500865498582,-0.019076500865498582,-0.019076500865498582,-0.019076500865498582,-0.019076500865498582,-0.019076500865498582,-0.019076500865498582,-0.019076500865498582,-0.019076500865498582,-0.019076500865498582,-0.019076500865498582,-0.019076500865498582,-0.019076500865498582,-0.019076500865498582,-0.019076500865498582,-0.019076500865498582,-0.019076500865498582,-0.019076500865498582,-0.019076500865498582,-0.019076500865498582,-0.019076500865498582,-0.019076500865498582,-0.019076500865498582,-0.019076500865498582,-0.019076500865498582,-0.019076500865498582,-0.019076500865498582,-0.019076500865498582,-0.019076500865498582,-0.019076500865498582,-0.019076500865498582,-0.019076500865498582,-0.019076500865498582,-0.019076500865498582,-0.019076500865498582,-0.019076500865498582,-0.019076500865498582,-0.019076500865498582,-0.019076500865498582,-0.019076500865498582
0.1014364052595893,0.10209296851327514,0.10271974837250318,0.1032727721917258,0.10379503164681013,0.10429786226327137,0.10492846110369804,0.10561652160773694,0.1063782952352515,0.10732280366756317,0.1083622614859622,0.10948740521513754,0.10970419447054479,0.10880239384230561,0.10736440478180587,0.10559232072490282,0.10458007600819326,0.10470140832462783,0.10719304624925809,0.11132775684334846,0.11505566585000906,0.11773243121795118,0.1194460085853112,0.12107962925199058,0.12216663559546873,0.12241381018963116,0.12141436096183188,0.1213530422905768,0.12269665977528797,0.1249521980901687,0.12698473279082365,0.12898054237992804,0.1322011224117801,0.13613983510527244,0.1396387833090394,0.14244884426850457,0.14351681054138588,0.1425544040728034,0.13841740400744745,0.13171783030454154,0.1256059113075401,0.1228434732212159,0.12392430766949047,0.12475010495669875,0.12334609520246051,0.12040087626619857,0.11760011277980278,0.11509067268401868,0.11316955265184515,0.11184241962378223,0.1119229686627621,0.1124605464445308,0.11378827426993678,0.11613705558036451,0.11911297105049673,0.12207373435033989,0.12406511112210243,0.12573571219722837,0.1272614306476151,0.12777759741567937,0.12638385604528646,0.12386573796838048,0.12174292232099253,0.12055216834495225,0.11998370522894514,0.11987853261678848,0.12027340695749264,0.12111891221943966,0.1220950764131045,0.12313166018836685,0.12388214617681356,0.12452017452884973,0.12496668565393877,0.12566094995588667,0.1261507254159543,0.12679422331250473,0.1270746086877431,0.1272337043531449,0.12689951986323972,0.12642563342579252,0.1254918914077532,0.12453545268119555,0.12376053933742212,0.12367282356948962,0.12361002257262935,0.12375922085316983,0.1244683498738283,0.12602078240649328,0.12828675400744488,0.13076923575535326,0.13343913561093557,0.13350669812953894,0.1126699180320209,0.06692283625890648,0.016897473271925936,-0.01314806039411923,-0.019076500865498582,-0.019076500865498582,-0.019076500865498582,-0.019076500865498582,-0.019076500865498582,-0.019076500865498582,-0.019076500865498582,-0.019076500865498582,-0.019076500865498582,-0.019076500865498582,-0.019076500865498582,-0.019076500865498582,-0.019076500865498582,-0.019076500865498582,-0.019076500865498582,-0.019076500865498582,-0.019076500865498582,-0.019076500865498582,-0.019076500865498582,-0.019076500865498582,-0.019076500865498582,-0.019076500865498582,-0.019076500865498582,-0.019076500865498582,-0.019076500865498582,-0.019076500865498582,-0.019076500865498582,-0.019076500865498582,-0.019076500865498582,-0.019076500865498582,-0.019076500865498582,-0.019076500865498582,-0.019076500865498582,-0.019076500865498582,-0.019076500865498582,-0.019076500865498582,-0.019076500865498582,-0.019076500865498582,-0.019076500865498582,-0.019076500865498582,-0.019076500865498582,-0.019076500865498582
0.10189657905771776,0.10237539680098791,0.10285583501356532,0.10342936815552163,0.10421868732156059,0.10527394689194147,0.10648461201465947,0.10747518302113322,0.10825870330153906,0.10837594829870535,0.10787764264093254,0.1066132357022117,0.10493267508789235,0.10285589667882596,0.10090903450336255,0.09947738976994351,0.0994981653869661,0.10112554886852149,0.10479492739452187,0.10972815000748332,0.1140450574310508,0.11669777590886946,0.11795379817238472,0.11902917646768967,0.11972216759655668,0.1200601802552275,0.11949360974043026,0.1198625012043902,0.1205686440687403,0.12165148531226902,0.1229183451457136,0.12473255953002667,0.12756854617288593,0.13073448251987482,0.1339020769933125,0.13688189705035853,0.1388346960767425,0.13956524227197648,0.13817737752608972,0.13335037771120317,0.1265168198729536,0.12113247094505436,0.11953412278700981,0.11933240974373782,0.11848403266515013,0.11704375765668522,0.11580167029308808,0.11444109745879467,0.11292504165445635,0.11202279484682759,0.11255778005555425,0.11365174466811326,0.11574803287911918,0.11830878713102191,0.12123210672290397,0.12381878555771875,0.12537073681000482,0.12680602278113362,0.12764997245580495,0.1273021154695442,0.1254869511826645,0.12324555572441384,0.12181085372354215,0.12096316211187134,0.12046790185559755,0.12050995686783367,0.12115012373448383,0.1222894921462874,0.12328319094454229,0.12415523451181264,0.1245953524101761,0.12509751803805844,0.12542409125505283,0.1260858301371852,0.12651576272617235,0.1269630478305198,0.12686820751498984,0.12642682168217922,0.1257711830013663,0.1251567085559566,0.12464602245883386,0.12411417150032672,0.12388659285019693,0.12417580849258818,0.12458873799973519,0.12516395869559294,0.12620057039244278,0.12786811348095964,0.13023674761268278,0.13311112142452486,0.13604277916912966,0.1339429006911997,0.0956377278650745,0.04306808066794487,-0.005502169937094459,-0.019076500865498582,-0.019076500865498582,-0.019076500865498582,-0.019076500865498582,-0.019076500865498582,-0.019076500865498582,-0.019076500865498582,-0.019076500865498582,-0.019076500865498582,-0.019076500865498582,-0.019076500865498582,-0.019076500865498582,-0.019076500865498582,-0.019076500865498582,-0.019076500865498582,-0.019076500865498582,-0.019076500865498582,-0.019076500865498582,-0.019076500865498582,-0.019076500865498582,-0.019076500865498582,-0.019076500865498582,-0.019076500865498582,-0.019076500865498582,-0.019076500865498582,-0.019076500865498582,-0.019076500865498582,-0.019076500865498582,-0.019076500865498582,-0.019076500865498582,-0.019076500865498582,-0.019076500865498582,-0.019076500865498582,-0.019076500865498582,-0.019076500865498582,-0.019076500865498582,-0.019076500865498582,-0.019076500865498582,-0.019076500865498582,-0.019076500865498582,-0.019076500865498582,-0.019076500865498582,-0.019076500865498582
