0.06800328459954798,0.0683954985914405,0.06882043239888404,0.06886467916728337,0.06800048959099826,0.06771947631349544,0.06837407305273914,0.06957500167142362,0.06996865056873498,0.06969058807688777,0.06878492883540459,0.06763670240070513,0.06747183223462742,0.06821869843898859,0.06891734030081023,0.06868700814700704,0.06836058997287082,0.06844636268240721,0.06872507440418349,0.06881182423581504,0.0688881851905943,0.06944918599072424,0.06997553745577881,0.07059421165982334,0.0705329655896481,0.06995025014270435,0.06954938842312149,0.06916768688286443,0.06915325445199147,0.06884995074006735,0.0687165656288884,0.06880061362468472,0.0693817028738471,0.06982632358354944,0.06921118054792855,0.0682392088442243,0.06729858403944199,0.0673244807945402,0.06713150368585888,0.06677795618536665,0.06576821124004627,0.06351315702708653,0.06210902551051464,0.061783917437892855,0.06193691592528229,0.06185562360963694,0.06125857864757826,0.06081649637311136,0.05980949226280473,0.0597597938600484,0.06170076705217982,0.0649752447585613,0.0676914228624902,0.07037810049836059,0.0713287624950567,0.07052981619921816,0.06771406087611079,0.06527653793901043,0.06371419708121426,0.06310262151343472,0.06337822480417432,0.06442249913554994,0.06597892037924522,0.06749185208187866,0.06925127071977931,0.07103474188142968,0.07278078460478334,0.0737811637471611,0.07516068551083654,0.07736370207388985,0.0817080176841378,0.08798390850931521,0.09292897905072249,0.09545489036136856,0.09494585075393076,0.0949896660136918,0.09439451996055834,0.08148276274374597,0.0451190025801234,0.00989854832618126,-0.012937191430741271,-0.012937191430741271,-0.012937191430741271,-0.012937191430741271,-0.012937191430741271,-0.012937191430741271,-0.012937191430741271,-0.012937191430741271,-0.012937191430741271,-0.012937191430741271,-0.012937191430741271,-0.012937191430741271,-0.012937191430741271,-0.012937191430741271,-0.012937191430741271,-0.012937191430741271,-0.012937191430741271,-0.012937191430741271,-0.012937191430741271,-0.012937191430741271,-0.012937191430741271,-0.012937191430741271,-0.012937191430741271,-0.012937191430741271,-0.012937191430741271,-0.012937191430741271,-0.012937191430741271,-0.012937191430741271,-0.012937191430741271,-0.012937191430741271,-0.012937191430741271,-0.012937191430741271,-0.012937191430741271,-0.012937191430741271,-0.012937191430741271,-0.012937191430741271,-0.012937191430741271,-0.012937191430741271,-0.012937191430741271,-0.012937191430741271,-0.012937191430741271,-0.012937191430741271,-0.012937191430741271,-0.012937191430741271,-0.012937191430741271,-0.012937191430741271,-0.012937191430741271,-0.012937191430741271,-0.012937191430741271,-0.012937191430741271,-0.012937191430741271,-0.012937191430741271,-0.012937191430741271,-0.012937191430741271,-0.012937191430741271,-0.012937191430741271,-0.012937191430741271
0.06779116761392355,0.06799464523430909,0.06842683561074371,0.06867016450469245,0.0685191035335725,0.06891007569439778,0.06972355376017976,0.07063909329040188,0.07089003456602358,0.07072115274448058,0.07006025496164035,0.0689657687591878,0.06891278450635428,0.06986068118291716,0.07095523012744606,0.07072012813290154,0.06983178530889576,0.06943398912129453,0.07006717543378743,0.07073263546344548,0.07122017542919863,0.07143299241854444,0.07179527697457455,0.07207694005195625,0.07167372785957174,0.0706235424863665,0.07010374257645215,0.07009043100894488,0.07015996622929985,0.0695565061255385,0.06871750136851958,0.06852258113288168,0.06898324712323244,0.06959320255703727,0.069269477750908,0.0686832291263802,0.06800590363143129,0.06822430185008968,0.06821008370582689,0.06799245897057433,0.06680486824835793,0.06430286136252586,0.06309560272276572,0.0628365357206031,0.06304723366881138,0.062078697588403516,0.060634371204364795,0.05965565887428931,0.05884945573724482,0.05933918109650779,0.06179627402389179,0.06489700302636286,0.067524510501077,0.07025892162699272,0.07197524806013432,0.07196708007845444,0.06931489667882007,0.0665832324327416,0.06465996788846493,0.06387626299864477,0.06392609732859346,0.06480918565854041,0.06639186305836829,0.0680324924846933,0.06961068658018635,0.07120768122208615,0.07263966878009617,0.0737346854495887,0.07516073684006462,0.07757980959267319,0.08248033705527717,0.08910995504205285,0.0943305283096827,0.0967110911094366,0.09677886074249412,0.09746543827891341,0.08459489125149396,0.05922273528640433,0.021912117363733382,-0.0014937263691447965,-0.012937191430741271,-0.012937191430741271,-0.012937191430741271,-0.012937191430741271,-0.012937191430741271,-0.012937191430741271,-0.012937191430741271,-0.012937191430741271,-0.012937191430741271,-0.012937191430741271,-0.012937191430741271,-0.012937191430741271,-0.012937191430741271,-0.012937191430741271,-0.012937191430741271,-0.012937191430741271,-0.012937191430741271,-0.012937191430741271,-0.012937191430741271,-0.012937191430741271,-0.012937191430741271,-0.012937191430741271,-0.012937191430741271,-0.012937191430741271,-0.012937191430741271,-0.012937191430741271,-0.012937191430741271,-0.012937191430741271,-0.012937191430741271,-0.012937191430741271,-0.012937191430741271,-0.012937191430741271,-0.012937191430741271,-0.012937191430741271,-0.012937191430741271,-0.012937191430741271,-0.012937191430741271,-0.012937191430741271,-0.012937191430741271,-0.012937191430741271,-0.012937191430741271,-0.012937191430741271,-0.012937191430741271,-0.012937191430741271,-0.012937191430741271,-0.012937191430741271,-0.012937191430741271,-0.012937191430741271,-0.012937191430741271,-0.012937191430741271,-0.012937191430741271,-0.012937191430741271,-0.012937191430741271,-0.012937191430741271,-0.012937191430741271,-0.012937191430741271,-0.012937191430741271
0.06849999662301819,0.06905911931675668,0.06985397670661292,0.06973412011060234,0.06886238040658675,0.0685914441511609,0.06923950083211855,0.07019228307530263,0.07061097660175641,0.07060272231888219,0.0702676463045196,0.06955881123324721,0.06964654633409201,0.07029929718303943,0.07105417492759346,0.07067405597202285,0.07022182379006237,0.07047492843049429,0.07154374949834053,0.07220455602223842,0.0723708335971711,0.07242238385027037,0.07270941826834806,0.07298582871197329,0.07268615352366997,0.07163408006952289,0.07100384568416829,0.07096167500331532,0.07124649134250119,0.07063319604622381,0.06977191171988227,0.06941787688007875,0.0699939037490612,0.07048259427540889,0.07026161509260653,0.06986186773384477,0.06932087561491904,0.06941600712064333,0.06911878599483569,0.0687262941041213,0.06714528478122384,0.06467534534648106,0.06410854462845407,0.06443292113946733,0.0644514444774272,0.06224440797156793,0.06015130195875989,0.05926621631139974,0.059940792197502805,0.062219895115929756,0.06567514133979974,0.0679229613091669,0.06889138237216232,0.07044917117919478,0.0721372604930466,0.0724193798414792,0.07023476994781035,0.0677170622785139,0.06618564311306649,0.06583621633457504,0.06614763917057437,0.06705715402333984,0.0682561594527613,0.06968196837033708,0.07090599028667659,0.07241531483015985,0.07356713176452855,0.0746650420787367,0.076029169585561,0.0782779767387231,0.08329461425400247,0.08986447674601508,0.09518794368891137,0.09764960734985187,0.0982643379723702,0.09701345651607449,0.06986490201361989,0.032209857369601594,-0.003277734778878566,-0.012937191430741271,-0.012937191430741271,-0.012937191430741271,-0.012937191430741271,-0.012937191430741271,-0.012937191430741271,-0.012937191430741271,-0.012937191430741271,-0.012937191430741271,-0.012937191430741271,-0.012937191430741271,-0.012937191430741271,-0.012937191430741271,-0.012937191430741271,-0.012937191430741271,-0.012937191430741271,-0.012937191430741271,-0.012937191430741271,-0.012937191430741271,-0.012937191430741271,-0.012937191430741271,-0.012937191430741271,-0.012937191430741271,-0.012937191430741271,-0.012937191430741271,-0.012937191430741271,-0.012937191430741271,-0.012937191430741271,-0.012937191430741271,-0.012937191430741271,-0.012937191430741271,-0.012937191430741271,-0.012937191430741271,-0.012937191430741271,-0.012937191430741271,-0.012937191430741271,-0.012937191430741271,-0.012937191430741271,-0.012937191430741271,-0.012937191430741271,-0.012937191430741271,-0.012937191430741271,-0.012937191430741271,-0.012937191430741271,-0.012937191430741271,-0.012937191430741271,-0.012937191430741271,-0.012937191430741271,-0.012937191430741271,-0.012937191430741271,-0.012937191430741271,-0.012937191430741271,-0.012937191430741271,-0.012937191430741271,-0.012937191430741271,-0.012937191430741271,-0.012937191430741271,-0.012937191430741271
0.06891996494742213,0.06903269206766223,0.069625581613893,0.06972056852979969,0.06951818298877302,0.06959143111639009,0.07016611040184274,0.07088984428290038,0.0714584754890458,0.0717090873881394,0.07168381956387458,0.07100963662652966,0.07094050757092213,0.07100176615523644,0.07125412710242737,0.07107211850476797,0.0711058893733573,0.0716821471823358,0.07277596683503851,0.07339370088138196,0.0736102493124416,0.07339972549073413,0.07359011599190654,0.07373334345369917,0.0732397493553863,0.07195875720958957,0.07105151058854815,0.07088567290619797,0.0713304231897455,0.07103731736216622,0.07037055444815549,0.06998186204988907,0.07067313185922404,0.0712690892243725,0.07106411443247143,0.07059933073887593,0.07020649202911326,0.07052109774595564,0.07024064616913628,0.06966830850341968,0.06760504826597372,0.06505131891702019,0.06446853375910223,0.06501376618685742,0.06501842904362565,0.062128780593664085,0.059502786915874045,0.05868600969918029,0.060505899365106,0.06394006278220457,0.06765721771569334,0.06921600379502986,0.06916262531057135,0.06994867635429929,0.0716930751672165,0.0725100281590608,0.07102209111385288,0.0687294393892026,0.06712150771521998,0.06673889737588742,0.06715112860246084,0.06820465902054083,0.0691580171808184,0.07036579369168568,0.07144409647328596,0.07319404966042062,0.07453387429122549,0.0759553017947658,0.07703660079827486,0.07888897913380459,0.08407695003137039,0.0912925779379325,0.09784149723235205,0.10087963693652023,0.09991247455494111,0.08561623285452082,0.047532975417767936,0.010667142575358217,-0.012937191430741271,-0.012937191430741271,-0.012937191430741271,-0.012937191430741271,-0.012937191430741271,-0.012937191430741271,-0.012937191430741271,-0.012937191430741271,-0.012937191430741271,-0.012937191430741271,-0.012937191430741271,-0.012937191430741271,-0.012937191430741271,-0.012937191430741271,-0.012937191430741271,-0.012937191430741271,-0.012937191430741271,-0.012937191430741271,-0.012937191430741271,-0.012937191430741271,-0.012937191430741271,-0.012937191430741271,-0.012937191430741271,-0.012937191430741271,-0.012937191430741271,-0.012937191430741271,-0.012937191430741271,-0.012937191430741271,-0.012937191430741271,-0.012937191430741271,-0.012937191430741271,-0.012937191430741271,-0.012937191430741271,-0.012937191430741271,-0.012937191430741271,-0.012937191430741271,-0.012937191430741271,-0.012937191430741271,-0.012937191430741271,-0.012937191430741271,-0.012937191430741271,-0.012937191430741271,-0.012937191430741271,-0.012937191430741271,-0.012937191430741271,-0.012937191430741271,-0.012937191430741271,-0.012937191430741271,-0.012937191430741271,-0.012937191430741271,-0.012937191430741271,-0.012937191430741271,-0.012937191430741271,-0.012937191430741271,-0.012937191430741271,-0.012937191430741271,-0.012937191430741271,-0.012937191430741271,-0.012937191430741271
0.07042694318316547,0.07072099021511274,0.0709125258478502,0.07023975271412887,0.0694552277310665,0.06918466603818554,0.06981043760124515,0.0706898596973579,0.07141199088232048,0.07176234054389781,0.07171283702892609,0.07104855480629942,0.07087559193156658,0.07087976870746904,0.07134340864038649,0.0713473367272241,0.07171929746713195,0.07258049188142365,0.07350466004324796,0.07372170717233058,0.07344415977657423,0.07337571125523115,0.07374498269311124,0.07400670657585681,0.07345128230318591,0.0723366689808835,0.07163987592183925,0.07134568973315243,0.0716007836954807,0.07145134923201092,0.07146411526933569,0.07163321343217474,0.07242968500924997,0.07274212340016269,0.07239943998475828,0.07168393128050604,0.07129078888709481,0.07133609221176282,0.07092307088652086,0.07012330603355232,0.06780401167883246,0.06545965683727079,0.06498478402984768,0.06556906668788945,0.0652774097462063,0.06256546547947153,0.060650272790064824,0.06045467839270286,0.06285472995552792,0.06658186166475846,0.0702060338993563,0.07121076553213554,0.0704032554117619,0.0703494318878482,0.07172006916086654,0.07263253877222853,0.07192148760756022,0.06997613271422821,0.06900828102985282,0.06899013440623009,0.06970045706090748,0.07022324778947717,0.07064087562303731,0.07165739019946102,0.07294742592031016,0.07479136047650724,0.07593002668020012,0.07712162401226044,0.07768796222701047,0.07896301901288154,0.08351846990463897,0.09070440143009635,0.09831401245692564,0.10231608987105766,0.08870801986685511,0.0611487035022276,0.022342469347414236,-0.0018222870463803144,-0.012937191430741271,-0.012937191430741271,-0.012937191430741271,-0.012937191430741271,-0.012937191430741271,-0.012937191430741271,-0.012937191430741271,-0.012937191430741271,-0.012937191430741271,-0.012937191430741271,-0.012937191430741271,-0.012937191430741271,-0.012937191430741271,-0.012937191430741271,-0.012937191430741271,-0.012937191430741271,-0.012937191430741271,-0.012937191430741271,-0.012937191430741271,-0.012937191430741271,-0.012937191430741271,-0.012937191430741271,-0.012937191430741271,-0.012937191430741271,-0.012937191430741271,-0.012937191430741271,-0.012937191430741271,-0.012937191430741271,-0.012937191430741271,-0.012937191430741271,-0.012937191430741271,-0.012937191430741271,-0.012937191430741271,-0.012937191430741271,-0.012937191430741271,-0.012937191430741271,-0.012937191430741271,-0.012937191430741271,-0.012937191430741271,-0.012937191430741271,-0.012937191430741271,-0.012937191430741271,-0.012937191430741271,-0.012937191430741271,-0.012937191430741271,-0.012937191430741271,-0.012937191430741271,-0.012937191430741271,-0.012937191430741271,-0.012937191430741271,-0.012937191430741271,-0.012937191430741271,-0.012937191430741271,-0.012937191430741271,-0.012937191430741271,-0.012937191430741271,-0.012937191430741271,-0.012937191430741271,-0.012937191430741271
0.07148378254777382,0.07129640498374072,0.07134037523685952,0.07096685739616072,0.07065378705542351,0.07057137568788188,0.07120039698312813,0.072025893687209,0.07270134390291073,0.07303081774361812,0.07270769098394098,0.07151156909924064,0.0713128920138154,0.07168879892969993,0.07261640038614484,0.07283533270450918,0.07313292282609613,0.07367119594778296,0.07438791204082859,0.0745740990018509,0.07464006435456685,0.07465107458849037,0.0750372216133855,0.07520233230746314,0.0743024610564338,0.0730267232889823,0.07233957239825352,0.07230786680947462,0.072602978233099,0.07232291327782352,0.07198212603468623,0.07215571517298423,0.07322306476909012,0.07368328077567238,0.07329938477502553,0.07238728036232006,0.07218123308626087,0.0723154964657836,0.07211837118547475,0.07135944723279809,0.06895405763234322,0.0666769346729968,0.06547362016909064,0.06527013754348332,0.06433538127540425,0.06220927828137743,0.06125255238051728,0.06182450210712554,0.06414055460045,0.06729208861751818,0.07022606968056784,0.07114346787441357,0.07066070744399193,0.07050766564145393,0.07183506869019513,0.07284186912298132,0.07259805681396064,0.07087423340798014,0.06987286600473806,0.06980341252753501,0.07054302358923713,0.07088261348647368,0.07119431286697674,0.07192060585150756,0.07346270039981484,0.07552213594684794,0.07699446483938222,0.07794368706606192,0.07772413109677904,0.07863819812110925,0.08351851104573876,0.09247050085271305,0.1028974839132213,0.10782795170991533,0.07979346726282945,0.03833547148595571,-0.0018102412816874008,-0.012937191430741271,-0.012937191430741271,-0.012937191430741271,-0.012937191430741271,-0.012937191430741271,-0.012937191430741271,-0.012937191430741271,-0.012937191430741271,-0.012937191430741271,-0.012937191430741271,-0.012937191430741271,-0.012937191430741271,-0.012937191430741271,-0.012937191430741271,-0.012937191430741271,-0.012937191430741271,-0.012937191430741271,-0.012937191430741271,-0.012937191430741271,-0.012937191430741271,-0.012937191430741271,-0.012937191430741271,-0.012937191430741271,-0.012937191430741271,-0.012937191430741271,-0.012937191430741271,-0.012937191430741271,-0.012937191430741271,-0.012937191430741271,-0.012937191430741271,-0.012937191430741271,-0.012937191430741271,-0.012937191430741271,-0.012937191430741271,-0.012937191430741271,-0.012937191430741271,-0.012937191430741271,-0.012937191430741271,-0.012937191430741271,-0.012937191430741271,-0.012937191430741271,-0.012937191430741271,-0.012937191430741271,-0.012937191430741271,-0.012937191430741271,-0.012937191430741271,-0.012937191430741271,-0.012937191430741271,-0.012937191430741271,-0.012937191430741271,-0.012937191430741271,-0.012937191430741271,-0.012937191430741271,-0.012937191430741271,-0.012937191430741271,-0.012937191430741271,-0.012937191430741271,-0.012937191430741271,-0.012937191430741271,-0.012937191430741271
0.07285251914294225,0.07347936450613894,0.07361167209160197,0.07261828934193273,0.07167751974011946,0.07127090459240562,0.07188264610070347,0.07286259659217974,0.07370746825842146,0.07410605983931345,0.0734809669049697,0.072061021972566,0.07183246020553256,0.07244925205509326,0.07383148578272597,0.07393048978113594,0.07387456446444188,0.07429502268100499,0.07499708300265769,0.07525560681434336,0.07502675730278319,0.07502014768489709,0.07543964559322895,0.07566066765922205,0.0748886033900644,0.07397056990946883,0.07350110384436195,0.07341266892376944,0.07338253288491205,0.07302199509380444,0.07320755438168755,0.07409820304138139,0.07536635994803204,0.07559490100219744,0.07506203383982638,0.07404960419996481,0.07373604764807869,0.0734669648816976,0.07316081778986104,0.0721500767097871,0.06963121809579889,0.06771294734998551,0.06681456618323793,0.0668420595488171,0.06592488943113796,0.06463653467896692,0.06423936471823188,0.06461601753040197,0.06616356875405155,0.0683624554479715,0.07032667537713383,0.07074371381337773,0.07051003446433163,0.07080216724679743,0.07214340807587351,0.07303967105361836,0.07297184033498365,0.07161988485994923,0.071198616182898,0.07156632795827322,0.07217227904061999,0.07184447273218444,0.07160800774798369,0.07212895020172098,0.07392718845005686,0.07590870387724025,0.07750120596403201,0.07804996306996191,0.07758464370143105,0.07895935497732937,0.08471024659336797,0.0927775637835155,0.1008027609819162,0.09180771103484874,0.05377610973190769,0.0140895661849469,-0.012937191430741271,-0.012937191430741271,-0.012937191430741271,-0.012937191430741271,-0.012937191430741271,-0.012937191430741271,-0.012937191430741271,-0.012937191430741271,-0.012937191430741271,-0.012937191430741271,-0.012937191430741271,-0.012937191430741271,-0.012937191430741271,-0.012937191430741271,-0.012937191430741271,-0.012937191430741271,-0.012937191430741271,-0.012937191430741271,-0.012937191430741271,-0.012937191430741271,-0.012937191430741271,-0.012937191430741271,-0.012937191430741271,-0.012937191430741271,-0.012937191430741271,-0.012937191430741271,-0.012937191430741271,-0.012937191430741271,-0.012937191430741271,-0.012937191430741271,-0.012937191430741271,-0.012937191430741271,-0.012937191430741271,-0.012937191430741271,-0.012937191430741271,-0.012937191430741271,-0.012937191430741271,-0.012937191430741271,-0.012937191430741271,-0.012937191430741271,-0.012937191430741271,-0.012937191430741271,-0.012937191430741271,-0.012937191430741271,-0.012937191430741271,-0.012937191430741271,-0.012937191430741271,-0.012937191430741271,-0.012937191430741271,-0.012937191430741271,-0.012937191430741271,-0.012937191430741271,-0.012937191430741271,-0.012937191430741271,-0.012937191430741271,-0.012937191430741271,-0.012937191430741271,-0.012937191430741271,-0.012937191430741271,-0.012937191430741271,-0.012937191430741271
0.07219506762709911,0.07251116895470607,0.07315130530305115,0.07300486600935543,0.07281917819576811,0.07279202801436355,0.07343421242725302,0.07413999344325059,0.07468457801221279,0.07494632993082928,0.07416250800653973,0.07276201826267495,0.0729657837265658,0.07403456695038858,0.07536213118747863,0.0752336387210992,0.07506817730909277,0.07543177239576876,0.07594262740047444,0.07620477013168261,0.07630717865328822,0.07640505281730994,0.0767109819039975,0.07680284075919606,0.0762693765708452,0.07564895858393376,0.0749185616010586,0.07437808537615508,0.07404385660285671,0.07387561680562356,0.07415152816721528,0.07529395068104663,0.07666249670187975,0.07697752615657391,0.07639853121154569,0.075520010314759,0.07542618861228098,0.07522997219156674,0.07494471365493786,0.07364659931514479,0.07072283825305176,0.06849924678671797,0.06717221990361856,0.06684530468342545,0.06576088338996472,0.06496673343612555,0.06515361331616812,0.06607735793824543,0.06786673961637835,0.06968290207784661,0.07057201451064034,0.07033761345313791,0.07005840585091452,0.07080701595528899,0.07209517482745537,0.07284227952516757,0.07248097114035466,0.07140915450235989,0.0711666886694887,0.071826682846186,0.0726045454515548,0.07264544802144744,0.07269082115526475,0.07347969799800308,0.07561479065710915,0.07749381144209908,0.07877748133346144,0.07847972108436416,0.07737239657899685,0.07813046988023074,0.08067653060554095,0.07666626363316771,0.07193940158706098,0.0532342677663687,0.027692064017863737,0.0011155832976050813,-0.012937191430741271,-0.012937191430741271,-0.012937191430741271,-0.012937191430741271,-0.012937191430741271,-0.012937191430741271,-0.012937191430741271,-0.012937191430741271,-0.012937191430741271,-0.012937191430741271,-0.012937191430741271,-0.012937191430741271,-0.012937191430741271,-0.012937191430741271,-0.012937191430741271,-0.012937191430741271,-0.012937191430741271,-0.012937191430741271,-0.012937191430741271,-0.012937191430741271,-0.012937191430741271,-0.012937191430741271,-0.012937191430741271,-0.012937191430741271,-0.012937191430741271,-0.012937191430741271,-0.012937191430741271,-0.012937191430741271,-0.012937191430741271,-0.012937191430741271,-0.012937191430741271,-0.012937191430741271,-0.012937191430741271,-0.012937191430741271,-0.012937191430741271,-0.012937191430741271,-0.012937191430741271,-0.012937191430741271,-0.012937191430741271,-0.012937191430741271,-0.012937191430741271,-0.012937191430741271,-0.012937191430741271,-0.012937191430741271,-0.012937191430741271,-0.012937191430741271,-0.012937191430741271,-0.012937191430741271,-0.012937191430741271,-0.012937191430741271,-0.012937191430741271,-0.012937191430741271,-0.012937191430741271,-0.012937191430741271,-0.012937191430741271,-0.012937191430741271,-0.012937191430741271,-0.012937191430741271,-0.012937191430741271,-0.012937191430741271,-0.012937191430741271
0.07313416746916604,0.0733444930218113,0.07361509587520809,0.0731756439203792,0.0730008198245321,0.07318254324662017,0.07408225779199855,0.07494505775442858,0.07555901480329406,0.07581521779056724,0.07499870407019059,0.07385764545278133,0.07397922753023499,0.07462702176985998,0.07540176412969526,0.07506430018238772,0.07552212826489368,0.07649839422949622,0.07710002844280196,0.07689467589653919,0.07664242575799549,0.07697359609851805,0.07754316711233034,0.07759881920993957,0.07684961747739283,0.07633542220980052,0.07587047012671766,0.07607014337501394,0.07633876389423824,0.0766795862792954,0.07755452319333951,0.07885444736304181,0.0794710537084852,0.07900202260962967,0.07800782504467554,0.077624155700625,0.07769570162033629,0.07751828514776295,0.07666772489149053,0.0744491436562478,0.07144518340384401,0.06977161776821006,0.0693357430354574,0.06914212106921412,0.06803959169678186,0.06703608219677665,0.06684732446498669,0.0676097251247732,0.06942687848816431,0.07090788114837071,0.07101022527404945,0.07020471257357382,0.06998179956390985,0.07100607726837506,0.07220179852179286,0.07273241473883835,0.07217141036404676,0.07143570584704063,0.07154770724673944,0.07209554884356656,0.0723617833283251,0.07216054275679852,0.07248750043129323,0.07396583584174202,0.07621833863458088,0.07770547370158765,0.07831446169083803,0.0775044764722143,0.07638698745289939,0.07604840908911024,0.06707439814593505,0.04965423356195881,0.031082293474875327,0.010218022788938911,-0.0015201866002388022,-0.012937191430741271,-0.012937191430741271,-0.012937191430741271,-0.012937191430741271,-0.012937191430741271,-0.012937191430741271,-0.012937191430741271,-0.012937191430741271,-0.012937191430741271,-0.012937191430741271,-0.012937191430741271,-0.012937191430741271,-0.012937191430741271,-0.012937191430741271,-0.012937191430741271,-0.012937191430741271,-0.012937191430741271,-0.012937191430741271,-0.012937191430741271,-0.012937191430741271,-0.012937191430741271,-0.012937191430741271,-0.012937191430741271,-0.012937191430741271,-0.012937191430741271,-0.012937191430741271,-0.012937191430741271,-0.012937191430741271,-0.012937191430741271,-0.012937191430741271,-0.012937191430741271,-0.012937191430741271,-0.012937191430741271,-0.012937191430741271,-0.012937191430741271,-0.012937191430741271,-0.012937191430741271,-0.012937191430741271,-0.012937191430741271,-0.012937191430741271,-0.012937191430741271,-0.012937191430741271,-0.012937191430741271,-0.012937191430741271,-0.012937191430741271,-0.012937191430741271,-0.012937191430741271,-0.012937191430741271,-0.012937191430741271,-0.012937191430741271,-0.012937191430741271,-0.012937191430741271,-0.012937191430741271,-0.012937191430741271,-0.012937191430741271,-0.012937191430741271,-0.012937191430741271,-0.012937191430741271,-0.012937191430741271,-0.012937191430741271,-0.012937191430741271,-0.012937191430741271
0.07340430338174547,0.07339279540708311,0.0739286515707395,0.0739547647586636,0.07414499924081644,0.07441940393794692,0.07533438110230191,0.07612879297519139,0.07647385610004499,0.07646871735916079,0.07520736793348572,0.07410417593056917,0.07425721880123934,0.07514204988138044,0.075835006580106,0.07588257314418315,0.07682996691501467,0.07817581710209157,0.07860439397343713,0.07824220843816443,0.07794833170733423,0.07831480411235313,0.07888618282053901,0.07873432134900388,0.07776946662469222,0.07693511269509172,0.0762383259939274,0.07659805496986784,0.07725290906384163,0.0784827970496512,0.07966003001423395,0.08092908955474028,0.08092355685105963,0.08044706785101687,0.07950840429939157,0.07944365700115857,0.07963154530061767,0.0794757340629984,0.0782068624350701,0.0752635799871124,0.07242311953526151,0.07097510551149114,0.07053921386378645,0.0695168952028403,0.0679076227100992,0.06693010573532936,0.06722202476206914,0.06871836601677203,0.07084375108712232,0.07175066721556696,0.07131655557757531,0.07023630776583412,0.07018990325490247,0.07110374805169457,0.07207659555863638,0.07217604613357208,0.07138027373647082,0.07099427971893643,0.07163935379164277,0.07258858296275669,0.07325366166581711,0.07378781575205026,0.07486679247079862,0.0769777013794386,0.07891038160656938,0.0797385131207884,0.07919223025821974,0.07764255739561879,0.07622347893743081,0.07434834584390726,0.05288568069763098,0.023784712219814354,-0.004765000869832823,-0.012937191430741271,-0.012937191430741271,-0.012937191430741271,-0.012937191430741271,-0.012937191430741271,-0.012937191430741271,-0.012937191430741271,-0.012937191430741271,-0.012937191430741271,-0.012937191430741271,-0.012937191430741271,-0.012937191430741271,-0.012937191430741271,-0.012937191430741271,-0.012937191430741271,-0.012937191430741271,-0.012937191430741271,-0.012937191430741271,-0.012937191430741271,-0.012937191430741271,-0.012937191430741271,-0.012937191430741271,-0.012937191430741271,-0.012937191430741271,-0.012937191430741271,-0.012937191430741271,-0.012937191430741271,-0.012937191430741271,-0.012937191430741271,-0.012937191430741271,-0.012937191430741271,-0.012937191430741271,-0.012937191430741271,-0.012937191430741271,-0.012937191430741271,-0.012937191430741271,-0.012937191430741271,-0.012937191430741271,-0.012937191430741271,-0.012937191430741271,-0.012937191430741271,-0.012937191430741271,-0.012937191430741271,-0.012937191430741271,-0.012937191430741271,-0.012937191430741271,-0.012937191430741271,-0.012937191430741271,-0.012937191430741271,-0.012937191430741271,-0.012937191430741271,-0.012937191430741271,-0.012937191430741271,-0.012937191430741271,-0.012937191430741271,-0.012937191430741271,-0.012937191430741271,-0.012937191430741271,-0.012937191430741271,-0.012937191430741271,-0.012937191430741271,-0.012937191430741271,-0.012937191430741271,-0.012937191430741271
0.07598813191415899,0.07648373123649788,0.07669730015964975,0.07598520203165203,0.07534024495629676,0.07511345460025244,0.0760452906328262,0.07719259447811959,0.07789989015322876,0.07781470720383069,0.07636761959785814,0.07533163419122982,0.0753746562864546,0.07609563288712375,0.07662430589832508,0.0768774097362057,0.07831789825018308,0.07987664327192595,0.08025843761579494,0.07960338711521668,0.07908573434446453,0.07954994196230838,0.08012278055846488,0.07980792935246438,0.07866902092643516,0.07805050591819297,0.07779443402476556,0.07871129084940388,0.07971370289563001,0.08131040882655685,0.08279358300789699,0.08344895072820034,0.08276836674443543,0.0819768098285786,0.08148516215917799,0.08204569557741394,0.08242450572366893,0.08211900296237405,0.08028194545736847,0.07752435084446113,0.0758408512542729,0.07541918829085574,0.07505558781566833,0.07352967911993162,0.07155419944804886,0.07008549336023864,0.06977390989310621,0.0706648085161769,0.07190405398089114,0.07188335237092461,0.07100954729700736,0.06993369130327462,0.07016591004449801,0.07100129467561658,0.07190319051873276,0.07161276925896275,0.07102908460863923,0.07110968400961704,0.07214779571828223,0.07283189223807583,0.07302847692971069,0.07331643239507256,0.07448607420725369,0.0766728035604998,0.07806203297948258,0.07845244797458537,0.07726347300159714,0.07576252118036822,0.07514294555950557,0.07421878320945083,0.045307872795995484,0.015856757992485558,-0.012937191430741271,-0.012937191430741271,-0.012937191430741271,-0.012937191430741271,-0.012937191430741271,-0.012937191430741271,-0.012937191430741271,-0.012937191430741271,-0.012937191430741271,-0.012937191430741271,-0.012937191430741271,-0.012937191430741271,-0.012937191430741271,-0.012937191430741271,-0.012937191430741271,-0.012937191430741271,-0.012937191430741271,-0.012937191430741271,-0.012937191430741271,-0.012937191430741271,-0.012937191430741271,-0.012937191430741271,-0.012937191430741271,-0.012937191430741271,-0.012937191430741271,-0.012937191430741271,-0.012937191430741271,-0.012937191430741271,-0.012937191430741271,-0.012937191430741271,-0.012937191430741271,-0.012937191430741271,-0.012937191430741271,-0.012937191430741271,-0.012937191430741271,-0.012937191430741271,-0.012937191430741271,-0.012937191430741271,-0.012937191430741271,-0.012937191430741271,-0.012937191430741271,-0.012937191430741271,-0.012937191430741271,-0.012937191430741271,-0.012937191430741271,-0.012937191430741271,-0.012937191430741271,-0.012937191430741271,-0.012937191430741271,-0.012937191430741271,-0.012937191430741271,-0.012937191430741271,-0.012937191430741271,-0.012937191430741271,-0.012937191430741271,-0.012937191430741271,-0.012937191430741271,-0.012937191430741271,-0.012937191430741271,-0.012937191430741271,-0.012937191430741271,-0.012937191430741271,-0.012937191430741271,-0.012937191430741271,-0.012937191430741271
0.07614054188908714,0.07730569574773447,0.07807785771942903,0.07785023913941787,0.07713995816119033,0.07679123634686015,0.07743226379722275,0.07841258651006486,0.07897373085583483,0.07875369505929548,0.07741289113948227,0.07705040847123001,0.07760898945471989,0.07856500288336639,0.078674103452474,0.07881142351501247,0.08007695099158417,0.08128568080409265,0.08123310503701717,0.08059149307702097,0.08040550338703546,0.08111799285122169,0.08153768368879252,0.08089047205542772,0.07976589551968125,0.07937025706343612,0.07950300823881534,0.0802941713876398,0.08115595058306185,0.0827334351157106,0.08440359008751991,0.0849161465159003,0.08448123419606855,0.08394668744718778,0.08394074900865513,0.08447868747712771,0.08456702124224044,0.0833447441034952,0.08101191854960003,0.07881546726781613,0.07806910223080196,0.07792210273105295,0.07693082624263742,0.07496872227242718,0.07290916180411776,0.07169741639791849,0.07186483876121588,0.07260953315210493,0.07278656767934505,0.07182348640489318,0.07073595850755904,0.07011980273619363,0.07064187215785843,0.07151497360858348,0.07216501367492305,0.0715431300951811,0.07140940099529271,0.0723592843514826,0.07422956781216479,0.07548942828918397,0.07638857076775281,0.07718282911717748,0.07841908718866826,0.07986282676718923,0.08034309009125633,0.0797380914332149,0.07779883319697373,0.07621120451154859,0.07638046802528595,0.07535166690608111,0.046207310477414686,0.01569398972784812,-0.012937191430741271,-0.012937191430741271,-0.012937191430741271,-0.012937191430741271,-0.012937191430741271,-0.012937191430741271,-0.012937191430741271,-0.012937191430741271,-0.012937191430741271,-0.012937191430741271,-0.012937191430741271,-0.012937191430741271,-0.012937191430741271,-0.012937191430741271,-0.012937191430741271,-0.012937191430741271,-0.012937191430741271,-0.012937191430741271,-0.012937191430741271,-0.012937191430741271,-0.012937191430741271,-0.012937191430741271,-0.012937191430741271,-0.012937191430741271,-0.012937191430741271,-0.012937191430741271,-0.012937191430741271,-0.012937191430741271,-0.012937191430741271,-0.012937191430741271,-0.012937191430741271,-0.012937191430741271,-0.012937191430741271,-0.012937191430741271,-0.012937191430741271,-0.012937191430741271,-0.012937191430741271,-0.012937191430741271,-0.012937191430741271,-0.012937191430741271,-0.012937191430741271,-0.012937191430741271,-0.012937191430741271,-0.012937191430741271,-0.012937191430741271,-0.012937191430741271,-0.012937191430741271,-0.012937191430741271,-0.012937191430741271,-0.012937191430741271,-0.012937191430741271,-0.012937191430741271,-0.012937191430741271,-0.012937191430741271,-0.012937191430741271,-0.012937191430741271,-0.012937191430741271,-0.012937191430741271,-0.012937191430741271,-0.012937191430741271,-0.012937191430741271,-0.012937191430741271,-0.012937191430741271,-0.012937191430741271,-0.012937191430741271
0.07874757114815399,0.07960950345622081,0.07963391734412009,0.07905176169996546,0.07823002737723507,0.07810632997749396,0.07873759535340807,0.0796163208304176,0.0801335315418522,0.07966135152862604,0.07858320204517585,0.0786022482820632,0.07927837129858295,0.07995019856468992,0.07974792027724689,0.07998565790508655,0.08136630774182418,0.08222526180300097,0.08210682720177463,0.08142984843469461,0.08154643911721246,0.08227137563308971,0.08239462812716812,0.0814467020908201,0.08035577397081113,0.08026420467470592,0.08122511228117162,0.0828226353453863,0.08422653975218444,0.08561469952731399,0.08668356608162398,0.08631640963568592,0.0856822947641018,0.08518490982674119,0.08608788844614007,0.08731460969835021,0.08761718677243742,0.08641217587108546,0.08496728193750232,0.08477790594498148,0.08530618367659383,0.08509098053636437,0.08298343433539128,0.08007772542346399,0.0771375011956231,0.07502116598091253,0.07430159210042893,0.07367438924425641,0.07247689378784113,0.07091490128020629,0.06987982213441866,0.06960657844278992,0.07024520807668219,0.07105992227423591,0.07164725988811074,0.07135899589679877,0.07187062493015245,0.07318351312423653,0.07479499981827496,0.07574096120982911,0.07663489165605382,0.07756539329598365,0.07896351712168008,0.07969755517621727,0.07940422102885712,0.07779733452670036,0.07549957473871846,0.07389651047931803,0.0737428537946535,0.06407576905679067,0.03554393399328886,0.006074189706320173,-0.012937191430741271,-0.012937191430741271,-0.012937191430741271,-0.012937191430741271,-0.012937191430741271,-0.012937191430741271,-0.012937191430741271,-0.012937191430741271,-0.012937191430741271,-0.012937191430741271,-0.012937191430741271,-0.012937191430741271,-0.012937191430741271,-0.012937191430741271,-0.012937191430741271,-0.012937191430741271,-0.012937191430741271,-0.012937191430741271,-0.012937191430741271,-0.012937191430741271,-0.012937191430741271,-0.012937191430741271,-0.012937191430741271,-0.012937191430741271,-0.012937191430741271,-0.012937191430741271,-0.012937191430741271,-0.012937191430741271,-0.012937191430741271,-0.012937191430741271,-0.012937191430741271,-0.012937191430741271,-0.012937191430741271,-0.012937191430741271,-0.012937191430741271,-0.012937191430741271,-0.012937191430741271,-0.012937191430741271,-0.012937191430741271,-0.012937191430741271,-0.012937191430741271,-0.012937191430741271,-0.012937191430741271,-0.012937191430741271,-0.012937191430741271,-0.012937191430741271,-0.012937191430741271,-0.012937191430741271,-0.012937191430741271,-0.012937191430741271,-0.012937191430741271,-0.012937191430741271,-0.012937191430741271,-0.012937191430741271,-0.012937191430741271,-0.012937191430741271,-0.012937191430741271,-0.012937191430741271,-0.012937191430741271,-0.012937191430741271,-0.012937191430741271,-0.012937191430741271,-0.012937191430741271,-0.012937191430741271,-0.012937191430741271
0.07839837820787064,0.07960919318874017,0.08010264012942865,0.08018054336799041,0.0800428985330146,0.08051513067679206,0.08094002066509935,0.08128582245165361,0.08128546120246924,0.08066342847964142,0.07962595113574561,0.07960292740834923,0.08004124975321117,0.08068619390052405,0.0805311406177739,0.08084932709093066,0.08206998624985186,0.08253439988144211,0.08251455662168072,0.08208842755044597,0.08271703512516936,0.08352650775664844,0.08341970573072707,0.08229567123035865,0.08134496740456498,0.08126743741717653,0.08242813260095658,0.08421663590320935,0.0860127071567954,0.08751091349596266,0.08818364510791173,0.08779508763251659,0.08756474846290868,0.08792044318796505,0.08960362482975467,0.09135773618732318,0.0923374730283599,0.09310233834938719,0.09477106712078473,0.09729654689096631,0.09848945380614853,0.09677564084431015,0.09235297564720298,0.08773052696007422,0.08383863655396566,0.08124566589325023,0.07920118570302116,0.07661834497870844,0.07403868724601163,0.07219637274466842,0.07164448188785678,0.07176980770966189,0.07209993925088978,0.07230728161869301,0.07242977675345336,0.07268975697066013,0.073951343478671,0.07570999825169397,0.07719663059167665,0.07822152250486143,0.07924689585514005,0.08055754193691314,0.08189159780806449,0.08214399298073082,0.08132632073303811,0.07940851348531318,0.07754412812856329,0.07665736477307847,0.07672888283933436,0.05613540866802231,0.026205552279455157,-0.004028177701462598,-0.012937191430741271,-0.012937191430741271,-0.012937191430741271,-0.012937191430741271,-0.012937191430741271,-0.012937191430741271,-0.012937191430741271,-0.012937191430741271,-0.012937191430741271,-0.012937191430741271,-0.012937191430741271,-0.012937191430741271,-0.012937191430741271,-0.012937191430741271,-0.012937191430741271,-0.012937191430741271,-0.012937191430741271,-0.012937191430741271,-0.012937191430741271,-0.012937191430741271,-0.012937191430741271,-0.012937191430741271,-0.012937191430741271,-0.012937191430741271,-0.012937191430741271,-0.012937191430741271,-0.012937191430741271,-0.012937191430741271,-0.012937191430741271,-0.012937191430741271,-0.012937191430741271,-0.012937191430741271,-0.012937191430741271,-0.012937191430741271,-0.012937191430741271,-0.012937191430741271,-0.012937191430741271,-0.012937191430741271,-0.012937191430741271,-0.012937191430741271,-0.012937191430741271,-0.012937191430741271,-0.012937191430741271,-0.012937191430741271,-0.012937191430741271,-0.012937191430741271,-0.012937191430741271,-0.012937191430741271,-0.012937191430741271,-0.012937191430741271,-0.012937191430741271,-0.012937191430741271,-0.012937191430741271,-0.012937191430741271,-0.012937191430741271,-0.012937191430741271,-0.012937191430741271,-0.012937191430741271,-0.012937191430741271,-0.012937191430741271,-0.012937191430741271,-0.012937191430741271,-0.012937191430741271,-0.012937191430741271,-0.012937191430741271
0.08129060857298566,0.08197702156628787,0.0818250997999223,0.0814087064878952,0.08119553856955503,0.08159447434176698,0.08188397458346044,0.08195178171123615,0.08182230577107902,0.08106384880626008,0.08025133729272914,0.08021131287985012,0.08043535712175455,0.08070414845688073,0.08087811942158404,0.08181963290262292,0.08331164715200115,0.08371366070815742,0.08377434557840466,0.08353012282896898,0.0841917930983064,0.08468217039151035,0.08431446502296633,0.08330440489019195,0.08283939817138009,0.0831882972836506,0.08444894955894562,0.08567291187308254,0.08702254733427424,0.08855129108088174,0.08914346148537693,0.08918368073726182,0.08939552892267974,0.09113842943382702,0.09406528222900035,0.09644177012343194,0.09809309397633928,0.10020508789769936,0.10365628808060554,0.10728897238787394,0.10823227919964017,0.10502423796783228,0.09854716147658041,0.09185988970368564,0.08629124520623985,0.08219476203027631,0.07860289643978999,0.07521475283401151,0.07303964438489174,0.07204548244735583,0.07216181387241417,0.07225624365657003,0.07205385248966549,0.07172304958298459,0.07193280948401004,0.07283441059026918,0.07433130602884595,0.07558083336879323,0.07658989876577998,0.07750570009028268,0.07845346499826239,0.07927807124597755,0.0795966220303809,0.07916018260393358,0.07794158286063708,0.07610918206699724,0.0748056292244198,0.07510163928232653,0.07624199458339631,0.04726710869065146,0.017187549995629395,-0.012937191430741271,-0.012937191430741271,-0.012937191430741271,-0.012937191430741271,-0.012937191430741271,-0.012937191430741271,-0.012937191430741271,-0.012937191430741271,-0.012937191430741271,-0.012937191430741271,-0.012937191430741271,-0.012937191430741271,-0.012937191430741271,-0.012937191430741271,-0.012937191430741271,-0.012937191430741271,-0.012937191430741271,-0.012937191430741271,-0.012937191430741271,-0.012937191430741271,-0.012937191430741271,-0.012937191430741271,-0.012937191430741271,-0.012937191430741271,-0.012937191430741271,-0.012937191430741271,-0.012937191430741271,-0.012937191430741271,-0.012937191430741271,-0.012937191430741271,-0.012937191430741271,-0.012937191430741271,-0.012937191430741271,-0.012937191430741271,-0.012937191430741271,-0.012937191430741271,-0.012937191430741271,-0.012937191430741271,-0.012937191430741271,-0.012937191430741271,-0.012937191430741271,-0.012937191430741271,-0.012937191430741271,-0.012937191430741271,-0.012937191430741271,-0.012937191430741271,-0.012937191430741271,-0.012937191430741271,-0.012937191430741271,-0.012937191430741271,-0.012937191430741271,-0.012937191430741271,-0.012937191430741271,-0.012937191430741271,-0.012937191430741271,-0.012937191430741271,-0.012937191430741271,-0.012937191430741271,-0.012937191430741271,-0.012937191430741271,-0.012937191430741271,-0.012937191430741271,-0.012937191430741271,-0.012937191430741271,-0.012937191430741271,-0.012937191430741271
0.08134517841840319,0.08273395768766414,0.08304711959308005,0.08289686409818453,0.0828807982562545,0.08319079023021218,0.08323334179117843,0.08315309279844083,0.08290531343719852,0.08184446309346155,0.0809405233464936,0.08074426396101565,0.08122534120310122,0.08185755369018292,0.08241393734190393,0.0835358042069457,0.08464583618090979,0.08492168382616985,0.08479062965445502,0.08467320723181612,0.08526371479949198,0.0856337893587731,0.08527390944760951,0.08488190447551928,0.08518708195287018,0.0859288238403555,0.08684590934129897,0.08784523536748834,0.08947791229921213,0.09112236018781311,0.09158531015324589,0.09199383116872152,0.09307824263435632,0.09581817334285368,0.09853033697234181,0.1002768857709664,0.10198698797433839,0.10457983324585708,0.1086710273779689,0.11262836384591707,0.11346712514831338,0.109109412170336,0.09981978194578706,0.0899219228150241,0.08303090730544925,0.07950155901322302,0.077792658713339,0.07621482647037034,0.07566719062123682,0.07581282470904542,0.07630608098148661,0.0760911955271169,0.07520986938605619,0.07444003391672466,0.07466383466088562,0.07584810773594748,0.07747793228470481,0.0788308760468529,0.08022825211961959,0.08147592105611981,0.08244715127928794,0.08248841984165799,0.08140217020146173,0.0801552259625627,0.07890352416615845,0.0780873728077371,0.07828324851195231,0.08053816880038717,0.08201809047522493,0.05109607749048708,0.018473322468697515,-0.012937191430741271,-0.012937191430741271,-0.012937191430741271,-0.012937191430741271,-0.012937191430741271,-0.012937191430741271,-0.012937191430741271,-0.012937191430741271,-0.012937191430741271,-0.012937191430741271,-0.012937191430741271,-0.012937191430741271,-0.012937191430741271,-0.012937191430741271,-0.012937191430741271,-0.012937191430741271,-0.012937191430741271,-0.012937191430741271,-0.012937191430741271,-0.012937191430741271,-0.012937191430741271,-0.012937191430741271,-0.012937191430741271,-0.012937191430741271,-0.012937191430741271,-0.012937191430741271,-0.012937191430741271,-0.012937191430741271,-0.012937191430741271,-0.012937191430741271,-0.012937191430741271,-0.012937191430741271,-0.012937191430741271,-0.012937191430741271,-0.012937191430741271,-0.012937191430741271,-0.012937191430741271,-0.012937191430741271,-0.012937191430741271,-0.012937191430741271,-0.012937191430741271,-0.012937191430741271,-0.012937191430741271,-0.012937191430741271,-0.012937191430741271,-0.012937191430741271,-0.012937191430741271,-0.012937191430741271,-0.012937191430741271,-0.012937191430741271,-0.012937191430741271,-0.012937191430741271,-0.012937191430741271,-0.012937191430741271,-0.012937191430741271,-0.012937191430741271,-0.012937191430741271,-0.012937191430741271,-0.012937191430741271,-0.012937191430741271,-0.012937191430741271,-0.012937191430741271,-0.012937191430741271,-0.012937191430741271,-0.012937191430741271,-0.012937191430741271
0.08430789157440857,0.08510942047722446,0.0849591976766343,0.08444930301858304,0.08434571231994067,0.08437041615603837,0.08428466950149201,0.08424942832725188,0.0839384633587722,0.08284758965587274,0.08253709269295109,0.08290942667374235,0.0833796576787106,0.08307004925136406,0.08310924570803434,0.08454464089966353,0.08577732130758763,0.08609168612348626,0.08565733705926466,0.08582104894720571,0.08662637513838992,0.08689076066029612,0.08644384138574314,0.08613637575501447,0.08667411812019983,0.08798131884867104,0.08911511552052957,0.08996145077284706,0.09145698339354277,0.09305741551395945,0.09421337829476381,0.0953032338541944,0.09705465234328578,0.09981906179901813,0.10140927118807988,0.10206438385994986,0.10251279890974568,0.1034182060105277,0.10526573529849223,0.10710910393263828,0.10674051979571597,0.10188208091788302,0.09119240925562722,0.0795312672358417,0.07190243213311218,0.07016494256872227,0.07185403442513388,0.07330807492110891,0.07463779023785727,0.07550312125501103,0.0755994135537536,0.07476062452924248,0.07381547308281339,0.0738229432321346,0.07496326117530497,0.07644381303794018,0.0776666147214104,0.07857777211737427,0.07978340832954231,0.08099757981754362,0.0815710176387301,0.08049156538358863,0.07814303194894025,0.07590140998154052,0.07402089057874324,0.07317813980164106,0.07415099392842624,0.0771123674593384,0.06927070601478223,0.039124739402933095,0.0077032730328653355,-0.012937191430741271,-0.012937191430741271,-0.012937191430741271,-0.012937191430741271,-0.012937191430741271,-0.012937191430741271,-0.012937191430741271,-0.012937191430741271,-0.012937191430741271,-0.012937191430741271,-0.012937191430741271,-0.012937191430741271,-0.012937191430741271,-0.012937191430741271,-0.012937191430741271,-0.012937191430741271,-0.012937191430741271,-0.012937191430741271,-0.012937191430741271,-0.012937191430741271,-0.012937191430741271,-0.012937191430741271,-0.012937191430741271,-0.012937191430741271,-0.012937191430741271,-0.012937191430741271,-0.012937191430741271,-0.012937191430741271,-0.012937191430741271,-0.012937191430741271,-0.012937191430741271,-0.012937191430741271,-0.012937191430741271,-0.012937191430741271,-0.012937191430741271,-0.012937191430741271,-0.012937191430741271,-0.012937191430741271,-0.012937191430741271,-0.012937191430741271,-0.012937191430741271,-0.012937191430741271,-0.012937191430741271,-0.012937191430741271,-0.012937191430741271,-0.012937191430741271,-0.012937191430741271,-0.012937191430741271,-0.012937191430741271,-0.012937191430741271,-0.012937191430741271,-0.012937191430741271,-0.012937191430741271,-0.012937191430741271,-0.012937191430741271,-0.012937191430741271,-0.012937191430741271,-0.012937191430741271,-0.012937191430741271,-0.012937191430741271,-0.012937191430741271,-0.012937191430741271,-0.012937191430741271,-0.012937191430741271,-0.012937191430741271,-0.012937191430741271
0.08493491311373053,0.08565665375219426,0.08546375732780676,0.0851281022979727,0.08565266105232541,0.0861613476263905,0.08636291336856647,0.0864233723317697,0.08569883556574318,0.0844769201807625,0.08416505411129863,0.08456784621463855,0.08506446731406617,0.08509688868346585,0.08566662767866125,0.086990269998628,0.08740288850806975,0.08710682247289636,0.08638312584943855,0.08664577599317212,0.08729070151375519,0.08728216459842097,0.08690281280811957,0.08719737408196494,0.08830374561266639,0.08969433663616587,0.09082766277620388,0.09234978157458183,0.09446121502939368,0.09544656321271955,0.09628689435672039,0.09726962327126974,0.09967754340564634,0.10156753594843566,0.10185003451193668,0.10179559316326048,0.10197063165566064,0.10300314000457032,0.10439768162317115,0.10566296987521268,0.10503698103872729,0.10047756601851823,0.08885829881083183,0.07537718698868466,0.06728405115168225,0.06810842686424444,0.0734796240920626,0.07681458089925486,0.07809126544064743,0.07786676857445879,0.07686604384921387,0.07578746421106243,0.07549494390449342,0.07632533262513622,0.07772005039250222,0.07932757413397132,0.08075183428054553,0.08207424768612541,0.0831819994004644,0.08375303016751126,0.08333655595338729,0.08173074404252327,0.07973288730369879,0.07809648559364674,0.07699427517867782,0.07729391936792793,0.0797188222657017,0.082954534202624,0.06254266871837613,0.030117750379465107,-0.002794891169264585,-0.012937191430741271,-0.012937191430741271,-0.012937191430741271,-0.012937191430741271,-0.012937191430741271,-0.012937191430741271,-0.012937191430741271,-0.012937191430741271,-0.012937191430741271,-0.012937191430741271,-0.012937191430741271,-0.012937191430741271,-0.012937191430741271,-0.012937191430741271,-0.012937191430741271,-0.012937191430741271,-0.012937191430741271,-0.012937191430741271,-0.012937191430741271,-0.012937191430741271,-0.012937191430741271,-0.012937191430741271,-0.012937191430741271,-0.012937191430741271,-0.012937191430741271,-0.012937191430741271,-0.012937191430741271,-0.012937191430741271,-0.012937191430741271,-0.012937191430741271,-0.012937191430741271,-0.012937191430741271,-0.012937191430741271,-0.012937191430741271,-0.012937191430741271,-0.012937191430741271,-0.012937191430741271,-0.012937191430741271,-0.012937191430741271,-0.012937191430741271,-0.012937191430741271,-0.012937191430741271,-0.012937191430741271,-0.012937191430741271,-0.012937191430741271,-0.012937191430741271,-0.012937191430741271,-0.012937191430741271,-0.012937191430741271,-0.012937191430741271,-0.012937191430741271,-0.012937191430741271,-0.012937191430741271,-0.012937191430741271,-0.012937191430741271,-0.012937191430741271,-0.012937191430741271,-0.012937191430741271,-0.012937191430741271,-0.012937191430741271,-0.012937191430741271,-0.012937191430741271,-0.012937191430741271,-0.012937191430741271,-0.012937191430741271,-0.012937191430741271
0.08737033230938751,0.08698714380636192,0.08608087142086898,0.08537881719187318,0.08616732475694981,0.08701211065220796,0.08761935389411551,0.08760619381685388,0.08642569013481215,0.08560414424259875,0.08609647383818429,0.08721080572132531,0.08715633235110909,0.08639000316440335,0.08685937636486192,0.0883314104488712,0.08888592183751452,0.08832593234393117,0.08759841458366467,0.0880655049586591,0.08879669338813731,0.08878454592598031,0.08866695866868285,0.08912240783969878,0.09037734646684242,0.09193969206840294,0.09332044546762752,0.09498872633664143,0.0965365834322169,0.09715614773514428,0.0983186347512663,0.09984174289923234,0.10226853342554698,0.10280523066543619,0.1020034035291344,0.10103931274476813,0.10066691737536557,0.10148147445853836,0.10209443502990001,0.1024852012288734,0.1013506503210296,0.09806901914330998,0.08762650754377017,0.07369626343349661,0.06439213272026999,0.06514768517200328,0.07121696016003991,0.07464995184839655,0.07488233527844203,0.07352130056620644,0.07217465098733741,0.07191010368264467,0.07292518827272325,0.07471071586936201,0.07643991468598235,0.0779114684376154,0.07914254514451771,0.08019497843723987,0.08080274588232988,0.08037344282125754,0.07882744120219597,0.07672247786303388,0.0751235566868879,0.07415471834912826,0.07406370364201025,0.0754595074245524,0.07890704960232064,0.08147463181723036,0.05100287473744316,0.018752315974312074,-0.012937191430741271,-0.012937191430741271,-0.012937191430741271,-0.012937191430741271,-0.012937191430741271,-0.012937191430741271,-0.012937191430741271,-0.012937191430741271,-0.012937191430741271,-0.012937191430741271,-0.012937191430741271,-0.012937191430741271,-0.012937191430741271,-0.012937191430741271,-0.012937191430741271,-0.012937191430741271,-0.012937191430741271,-0.012937191430741271,-0.012937191430741271,-0.012937191430741271,-0.012937191430741271,-0.012937191430741271,-0.012937191430741271,-0.012937191430741271,-0.012937191430741271,-0.012937191430741271,-0.012937191430741271,-0.012937191430741271,-0.012937191430741271,-0.012937191430741271,-0.012937191430741271,-0.012937191430741271,-0.012937191430741271,-0.012937191430741271,-0.012937191430741271,-0.012937191430741271,-0.012937191430741271,-0.012937191430741271,-0.012937191430741271,-0.012937191430741271,-0.012937191430741271,-0.012937191430741271,-0.012937191430741271,-0.012937191430741271,-0.012937191430741271,-0.012937191430741271,-0.012937191430741271,-0.012937191430741271,-0.012937191430741271,-0.012937191430741271,-0.012937191430741271,-0.012937191430741271,-0.012937191430741271,-0.012937191430741271,-0.012937191430741271,-0.012937191430741271,-0.012937191430741271,-0.012937191430741271,-0.012937191430741271,-0.012937191430741271,-0.012937191430741271,-0.012937191430741271,-0.012937191430741271,-0.012937191430741271,-0.012937191430741271,-0.012937191430741271,-0.012937191430741271
0.08942469337455453,0.08885888508389377,0.08752905853064787,0.08666723655919517,0.08729651322011164,0.08805981420132199,0.08868995926771055,0.08836937095966478,0.08711234194145417,0.08647790660815037,0.08686899054166264,0.0875571755993912,0.08749299244641023,0.08783847597609919,0.08923314903139615,0.09016386863252386,0.08989148939572514,0.08905263045500043,0.08905107738305851,0.08992966258670022,0.09036583818599307,0.08998757746627131,0.09023012602655009,0.09140214632367187,0.09335452695784587,0.09492330561471901,0.09638506746748512,0.09833814894314762,0.09940770540662502,0.09954196834271103,0.10016211062358898,0.10151961934114062,0.10298851329793847,0.10255256207787108,0.10191321429563621,0.10153992055430401,0.10183430628651786,0.10235341783089846,0.10227659694916746,0.10266257814062475,0.10293581018079634,0.10221475864960744,0.09290343237129832,0.07642274229152214,0.06359865808178218,0.06253198452903694,0.06942152916983906,0.07380415609688513,0.07383682497914608,0.07266044526356424,0.0724592313640263,0.07351803952236145,0.0751985849964021,0.07684007849357023,0.07813039531214416,0.07946401027235786,0.08079718705082167,0.08174497643262851,0.0817148905600918,0.08046674116183897,0.07876332819773368,0.07733962529375087,0.07693647636530372,0.07738050972723651,0.07911874103346075,0.08223832409610377,0.08679305254381643,0.08904564401950538,0.05586141833785383,0.020887174551172734,-0.012937191430741271,-0.012937191430741271,-0.012937191430741271,-0.012937191430741271,-0.012937191430741271,-0.012937191430741271,-0.012937191430741271,-0.012937191430741271,-0.012937191430741271,-0.012937191430741271,-0.012937191430741271,-0.012937191430741271,-0.012937191430741271,-0.012937191430741271,-0.012937191430741271,-0.012937191430741271,-0.012937191430741271,-0.012937191430741271,-0.012937191430741271,-0.012937191430741271,-0.012937191430741271,-0.012937191430741271,-0.012937191430741271,-0.012937191430741271,-0.012937191430741271,-0.012937191430741271,-0.012937191430741271,-0.012937191430741271,-0.012937191430741271,-0.012937191430741271,-0.012937191430741271,-0.012937191430741271,-0.012937191430741271,-0.012937191430741271,-0.012937191430741271,-0.012937191430741271,-0.012937191430741271,-0.012937191430741271,-0.012937191430741271,-0.012937191430741271,-0.012937191430741271,-0.012937191430741271,-0.012937191430741271,-0.012937191430741271,-0.012937191430741271,-0.012937191430741271,-0.012937191430741271,-0.012937191430741271,-0.012937191430741271,-0.012937191430741271,-0.012937191430741271,-0.012937191430741271,-0.012937191430741271,-0.012937191430741271,-0.012937191430741271,-0.012937191430741271,-0.012937191430741271,-0.012937191430741271,-0.012937191430741271,-0.012937191430741271,-0.012937191430741271,-0.012937191430741271,-0.012937191430741271,-0.012937191430741271,-0.012937191430741271,-0.012937191430741271,-0.012937191430741271
0.09105648993109187,0.09014135771715848,0.08904876396377849,0.08881514910106823,0.08959460952786592,0.09034820317684109,0.0907430520118319,0.08971075144185515,0.08837644459890732,0.08811928022104815,0.08899155311644069,0.08958821657724134,0.08927863618143592,0.08956139086133874,0.09058354134438842,0.0910005940775343,0.09079565040898746,0.09048916514326479,0.0914389059506761,0.0928079985242514,0.09331555469730636,0.09308505266138901,0.09374270767063055,0.0953128595591064,0.09731629169680464,0.09850063925889192,0.09965120666220234,0.1015983640769997,0.1023281475077477,0.10319328855407099,0.10371038483039097,0.1047664177091731,0.1046332277983635,0.10344869636237515,0.1025232222045171,0.1019786401369252,0.10209542355820034,0.10173359489293948,0.10125200142981458,0.10192480082544585,0.10359263967073488,0.10377195913880391,0.09321385235741728,0.07269406946398753,0.0539734101170997,0.04911322291169923,0.05610938535650038,0.06374197077018515,0.0669690213906663,0.06860933454367221,0.07067274128334747,0.07289017111280378,0.0746581267021294,0.07589305599110138,0.07707426927048991,0.0780495553246976,0.07857738705910458,0.07835441402003714,0.07737321425721133,0.0757724096717103,0.07431882522853052,0.07342954847131725,0.07359046501599834,0.07482356258264494,0.07731541447640984,0.08093017049396249,0.08507019583607998,0.08625929522678813,0.053543998955637696,0.019434425882144963,-0.012937191430741271,-0.012937191430741271,-0.012937191430741271,-0.012937191430741271,-0.012937191430741271,-0.012937191430741271,-0.012937191430741271,-0.012937191430741271,-0.012937191430741271,-0.012937191430741271,-0.012937191430741271,-0.012937191430741271,-0.012937191430741271,-0.012937191430741271,-0.012937191430741271,-0.012937191430741271,-0.012937191430741271,-0.012937191430741271,-0.012937191430741271,-0.012937191430741271,-0.012937191430741271,-0.012937191430741271,-0.012937191430741271,-0.012937191430741271,-0.012937191430741271,-0.012937191430741271,-0.012937191430741271,-0.012937191430741271,-0.012937191430741271,-0.012937191430741271,-0.012937191430741271,-0.012937191430741271,-0.012937191430741271,-0.012937191430741271,-0.012937191430741271,-0.012937191430741271,-0.012937191430741271,-0.012937191430741271,-0.012937191430741271,-0.012937191430741271,-0.012937191430741271,-0.012937191430741271,-0.012937191430741271,-0.012937191430741271,-0.012937191430741271,-0.012937191430741271,-0.012937191430741271,-0.012937191430741271,-0.012937191430741271,-0.012937191430741271,-0.012937191430741271,-0.012937191430741271,-0.012937191430741271,-0.012937191430741271,-0.012937191430741271,-0.012937191430741271,-0.012937191430741271,-0.012937191430741271,-0.012937191430741271,-0.012937191430741271,-0.012937191430741271,-0.012937191430741271,-0.012937191430741271,-0.012937191430741271,-0.012937191430741271,-0.012937191430741271,-0.012937191430741271
0.09393200966426674,0.09310535959540038,0.09216440906336619,0.09228528032163955,0.09271019602034969,0.09304693200480407,0.09274990572565256,0.09119945289638848,0.09011796315353975,0.09017234952909316,0.09100046597609406,0.09098168434129147,0.0905439847681489,0.09099377279808511,0.09173944440527554,0.09153440027410054,0.09115197025857863,0.09134998975212694,0.09300294675788494,0.09433015272223892,0.09448348491397587,0.09464330587262214,0.09590844505497234,0.09780606624912763,0.09925533710449512,0.10006750730896664,0.10143248453120064,0.10314068403219717,0.10364766854619008,0.10451058116880194,0.10489243550295924,0.10519275656076953,0.10407247947303344,0.10325704773982773,0.1034042895184837,0.10444812548860927,0.10567099238608736,0.10545745324036417,0.10518706008174175,0.10639070578878046,0.10938255037606893,0.10919032793947668,0.09578076033046669,0.07182345914256216,0.04861156538291935,0.042532212416341274,0.050098736630329085,0.06139872335504312,0.06764939973722896,0.07121796696496778,0.07378018207874307,0.07573936190448238,0.07718178732966213,0.07847942887759543,0.07958492256522895,0.07998005774365646,0.07947229027630752,0.07832456690516676,0.07698360699490801,0.07578790939327351,0.07503067869011126,0.07487024874122192,0.07575662821512458,0.07786987679794818,0.08086451266780174,0.08470413347087942,0.08859452052097527,0.09018811447529876,0.05619605376965133,0.020974614950835573,-0.012937191430741271,-0.012937191430741271,-0.012937191430741271,-0.012937191430741271,-0.012937191430741271,-0.012937191430741271,-0.012937191430741271,-0.012937191430741271,-0.012937191430741271,-0.012937191430741271,-0.012937191430741271,-0.012937191430741271,-0.012937191430741271,-0.012937191430741271,-0.012937191430741271,-0.012937191430741271,-0.012937191430741271,-0.012937191430741271,-0.012937191430741271,-0.012937191430741271,-0.012937191430741271,-0.012937191430741271,-0.012937191430741271,-0.012937191430741271,-0.012937191430741271,-0.012937191430741271,-0.012937191430741271,-0.012937191430741271,-0.012937191430741271,-0.012937191430741271,-0.012937191430741271,-0.012937191430741271,-0.012937191430741271,-0.012937191430741271,-0.012937191430741271,-0.012937191430741271,-0.012937191430741271,-0.012937191430741271,-0.012937191430741271,-0.012937191430741271,-0.012937191430741271,-0.012937191430741271,-0.012937191430741271,-0.012937191430741271,-0.012937191430741271,-0.012937191430741271,-0.012937191430741271,-0.012937191430741271,-0.012937191430741271,-0.012937191430741271,-0.012937191430741271,-0.012937191430741271,-0.012937191430741271,-0.012937191430741271,-0.012937191430741271,-0.012937191430741271,-0.012937191430741271,-0.012937191430741271,-0.012937191430741271,-0.012937191430741271,-0.012937191430741271,-0.012937191430741271,-0.012937191430741271,-0.012937191430741271,-0.012937191430741271,-0.012937191430741271,-0.012937191430741271
0.0938561602983927,0.09334025180994389,0.09310803182651747,0.09374822351015785,0.0944424796126579,0.09501588502123025,0.09453128074879845,0.09307458549895599,0.0925813006663828,0.09326082001579056,0.0941782524899488,0.09385903749277111,0.09321062986254529,0.09358543103511417,0.09401283434377405,0.0940814745280372,0.0942303955999392,0.09496738352888182,0.09643975371332685,0.09700677327882934,0.09702160081165077,0.09801155134825332,0.09965223864299128,0.10138966466323228,0.10198522082934693,0.10250259959112505,0.10379612820627204,0.10471409054629317,0.10539940866628957,0.10619536386862083,0.10674547361241749,0.1065639482904294,0.10567983086263347,0.105463509659933,0.10615851527322605,0.10718695588927453,0.10813053934099658,0.1082046206492142,0.10926471659853335,0.11171818143734169,0.1139402935399791,0.11011523164290123,0.09235243524883897,0.07106364335483578,0.04262479433370329,0.036538259320897826,0.04004494009893303,0.05792793990982994,0.06685523535268527,0.07112285925064082,0.07301707183274675,0.07427495811283553,0.07535710210839569,0.07641671058658374,0.07680551475450459,0.07610861179691727,0.07453187522972467,0.07305750218600497,0.07206054710089385,0.07151907876338359,0.07127241176826997,0.07160935190072734,0.07298072721779258,0.07534821588699256,0.07835149499086222,0.0817686608596354,0.08478082160902287,0.08379212442280895,0.05101827033808766,0.017566083726020386,-0.012937191430741271,-0.012937191430741271,-0.012937191430741271,-0.012937191430741271,-0.012937191430741271,-0.012937191430741271,-0.012937191430741271,-0.012937191430741271,-0.012937191430741271,-0.012937191430741271,-0.012937191430741271,-0.012937191430741271,-0.012937191430741271,-0.012937191430741271,-0.012937191430741271,-0.012937191430741271,-0.012937191430741271,-0.012937191430741271,-0.012937191430741271,-0.012937191430741271,-0.012937191430741271,-0.012937191430741271,-0.012937191430741271,-0.012937191430741271,-0.012937191430741271,-0.012937191430741271,-0.012937191430741271,-0.012937191430741271,-0.012937191430741271,-0.012937191430741271,-0.012937191430741271,-0.012937191430741271,-0.012937191430741271,-0.012937191430741271,-0.012937191430741271,-0.012937191430741271,-0.012937191430741271,-0.012937191430741271,-0.012937191430741271,-0.012937191430741271,-0.012937191430741271,-0.012937191430741271,-0.012937191430741271,-0.012937191430741271,-0.012937191430741271,-0.012937191430741271,-0.012937191430741271,-0.012937191430741271,-0.012937191430741271,-0.012937191430741271,-0.012937191430741271,-0.012937191430741271,-0.012937191430741271,-0.012937191430741271,-0.012937191430741271,-0.012937191430741271,-0.012937191430741271,-0.012937191430741271,-0.012937191430741271,-0.012937191430741271,-0.012937191430741271,-0.012937191430741271,-0.012937191430741271,-0.012937191430741271,-0.012937191430741271,-0.012937191430741271,-0.012937191430741271
0.09599963736894368,0.09537909415010186,0.0951233650719276,0.0953267992262188,0.09568486987815049,0.09592821222494982,0.09512729057454192,0.09407524953474002,0.09420004431614896,0.09515693252340698,0.0956312814903523,0.09515042747659605,0.09490168626524727,0.09569984711328668,0.0958405278107969,0.09574218713984538,0.09562640855482424,0.09652157173690666,0.09774369138365013,0.09796230715721929,0.09846436922932007,0.10018103767766828,0.10204110045454404,0.10306297781990399,0.10277555049343634,0.10346035576975796,0.10478143450857152,0.10519110220314346,0.10583679163164587,0.10626736395655248,0.10682338130065998,0.10616734629714106,0.10564487105434492,0.10658822593321741,0.10879334387945866,0.11102053910077181,0.11251397105473376,0.11405222005176499,0.11702292088643981,0.12040896776135196,0.12092487473307648,0.11511937179706234,0.09947740214210216,0.0902472485337043,0.05473712568921704,0.04481024125439142,0.03632838288665545,0.06125839378212796,0.07099642596670792,0.07496026335529207,0.07636791504450817,0.0769893980448861,0.07748088089715063,0.07768679658594203,0.07700540258412131,0.07558798448995349,0.07401200422797555,0.07304017174192584,0.07258458850078416,0.0724413465098061,0.07266070356165812,0.07362363178479879,0.07542202340620834,0.07807810587667972,0.08102892609859405,0.08394835135865479,0.08555999876704895,0.0735441847348625,0.04039355803919192,0.007401966364027098,-0.012937191430741271,-0.012937191430741271,-0.012937191430741271,-0.012937191430741271,-0.012937191430741271,-0.012937191430741271,-0.012937191430741271,-0.012937191430741271,-0.012937191430741271,-0.012937191430741271,-0.012937191430741271,-0.012937191430741271,-0.012937191430741271,-0.012937191430741271,-0.012937191430741271,-0.012937191430741271,-0.012937191430741271,-0.012937191430741271,-0.012937191430741271,-0.012937191430741271,-0.012937191430741271,-0.012937191430741271,-0.012937191430741271,-0.012937191430741271,-0.012937191430741271,-0.012937191430741271,-0.012937191430741271,-0.012937191430741271,-0.012937191430741271,-0.012937191430741271,-0.012937191430741271,-0.012937191430741271,-0.012937191430741271,-0.012937191430741271,-0.012937191430741271,-0.012937191430741271,-0.012937191430741271,-0.012937191430741271,-0.012937191430741271,-0.012937191430741271,-0.012937191430741271,-0.012937191430741271,-0.012937191430741271,-0.012937191430741271,-0.012937191430741271,-0.012937191430741271,-0.012937191430741271,-0.012937191430741271,-0.012937191430741271,-0.012937191430741271,-0.012937191430741271,-0.012937191430741271,-0.012937191430741271,-0.012937191430741271,-0.012937191430741271,-0.012937191430741271,-0.012937191430741271,-0.012937191430741271,-0.012937191430741271,-0.012937191430741271,-0.012937191430741271,-0.012937191430741271,-0.012937191430741271,-0.012937191430741271,-0.012937191430741271,-0.012937191430741271,-0.012937191430741271
0.09558005992997301,0.0949743711911622,0.09524914871111959,0.095858518635136,0.09679289032722192,0.0972989622730003,0.09670803748494103,0.09611221507278353,0.0965383349781131,0.09738563510487037,0.09748333060717086,0.0973521177589024,0.09814103003584632,0.09975223471357722,0.09990801232766727,0.09959972253118156,0.09929646411848761,0.10040184940746151,0.10119683001834957,0.101137734424763,0.10205861511477951,0.10399140669714681,0.10561726500218101,0.1061735823366805,0.10604092006286414,0.10686727486974258,0.10707444350612828,0.10693931857072882,0.1075710899131043,0.108338436830688,0.10885261213698434,0.10854401159129967,0.108973865258917,0.11086871566908742,0.11339548275891956,0.11564644349801784,0.11773411745501713,0.12099854014864567,0.125449124223648,0.12885664909656971,0.12725735982985387,0.11891345085101312,0.1051221577824922,0.10942570005421666,0.06363759759805279,0.0468766224118973,0.02288500406488259,0.057137816445499284,0.06905794774313914,0.07319948389617152,0.07433837357073078,0.07420195454592256,0.07354538331456463,0.07261112054708083,0.07153258412510347,0.07049018105587901,0.06943581164502281,0.06869345210120868,0.0681399859691979,0.06815763296608947,0.06890792448819791,0.0705402228914873,0.0727642534769491,0.07549891623255495,0.07821832178063534,0.08054289252795269,0.08024600476789763,0.057203332063844446,0.025516473366563756,-0.0046737469171671065,-0.012937191430741271,-0.012937191430741271,-0.012937191430741271,-0.012937191430741271,-0.012937191430741271,-0.012937191430741271,-0.012937191430741271,-0.012937191430741271,-0.012937191430741271,-0.012937191430741271,-0.012937191430741271,-0.012937191430741271,-0.012937191430741271,-0.012937191430741271,-0.012937191430741271,-0.012937191430741271,-0.012937191430741271,-0.012937191430741271,-0.012937191430741271,-0.012937191430741271,-0.012937191430741271,-0.012937191430741271,-0.012937191430741271,-0.012937191430741271,-0.012937191430741271,-0.012937191430741271,-0.012937191430741271,-0.012937191430741271,-0.012937191430741271,-0.012937191430741271,-0.012937191430741271,-0.012937191430741271,-0.012937191430741271,-0.012937191430741271,-0.012937191430741271,-0.012937191430741271,-0.012937191430741271,-0.012937191430741271,-0.012937191430741271,-0.012937191430741271,-0.012937191430741271,-0.012937191430741271,-0.012937191430741271,-0.012937191430741271,-0.012937191430741271,-0.012937191430741271,-0.012937191430741271,-0.012937191430741271,-0.012937191430741271,-0.012937191430741271,-0.012937191430741271,-0.012937191430741271,-0.012937191430741271,-0.012937191430741271,-0.012937191430741271,-0.012937191430741271,-0.012937191430741271,-0.012937191430741271,-0.012937191430741271,-0.012937191430741271,-0.012937191430741271,-0.012937191430741271,-0.012937191430741271,-0.012937191430741271,-0.012937191430741271,-0.012937191430741271,-0.012937191430741271
0.09810678721680775,0.09719100585420623,0.09726868512574731,0.09761277816807423,0.0982998421346605,0.09830358198172255,0.09787144879947335,0.09783839432742769,0.09851684115398679,0.09908471517906078,0.09912357382526833,0.09964590111976869,0.10109324790080722,0.10223862827983156,0.10169290600110564,0.10070235581543062,0.10035081752828143,0.10148112880149474,0.10214317325661465,0.10237142445448369,0.10353037242870147,0.10520931096780789,0.10639891755385135,0.10675917547854587,0.10702743177994034,0.10798486653949536,0.10784973313664004,0.1082581073564165,0.10919352719482621,0.1105542998108885,0.11101624584741107,0.11125109412502439,0.11208648439942898,0.11414993599182165,0.11717735995940079,0.12079416263388806,0.12437290044664531,0.12786653272628556,0.13080612312135861,0.13194385605411696,0.12837168111523442,0.12116659929887633,0.11661959125951564,0.14006641184372,0.08020719494803283,0.05034216078010462,0.005636221159153415,0.050830147993813135,0.0654718849056904,0.07075793295014768,0.07287194334801578,0.0735298484059157,0.07348768758853416,0.07294442162098609,0.07235605082189722,0.0716110937515799,0.0707739910714093,0.07003417681896373,0.06959860954990375,0.06974065765488933,0.07069902893389343,0.07258586881819325,0.0750961152205691,0.07774758146980562,0.080008477303476,0.0816516427477976,0.08022128010007408,0.04859558424427228,0.01670405504612106,-0.012937191430741271,-0.012937191430741271,-0.012937191430741271,-0.012937191430741271,-0.012937191430741271,-0.012937191430741271,-0.012937191430741271,-0.012937191430741271,-0.012937191430741271,-0.012937191430741271,-0.012937191430741271,-0.012937191430741271,-0.012937191430741271,-0.012937191430741271,-0.012937191430741271,-0.012937191430741271,-0.012937191430741271,-0.012937191430741271,-0.012937191430741271,-0.012937191430741271,-0.012937191430741271,-0.012937191430741271,-0.012937191430741271,-0.012937191430741271,-0.012937191430741271,-0.012937191430741271,-0.012937191430741271,-0.012937191430741271,-0.012937191430741271,-0.012937191430741271,-0.012937191430741271,-0.012937191430741271,-0.012937191430741271,-0.012937191430741271,-0.012937191430741271,-0.012937191430741271,-0.012937191430741271,-0.012937191430741271,-0.012937191430741271,-0.012937191430741271,-0.012937191430741271,-0.012937191430741271,-0.012937191430741271,-0.012937191430741271,-0.012937191430741271,-0.012937191430741271,-0.012937191430741271,-0.012937191430741271,-0.012937191430741271,-0.012937191430741271,-0.012937191430741271,-0.012937191430741271,-0.012937191430741271,-0.012937191430741271,-0.012937191430741271,-0.012937191430741271,-0.012937191430741271,-0.012937191430741271,-0.012937191430741271,-0.012937191430741271,-0.012937191430741271,-0.012937191430741271,-0.012937191430741271,-0.012937191430741271,-0.012937191430741271,-0.012937191430741271,-0.012937191430741271,-0.012937191430741271
0.09813948962397041,0.09809618059061039,0.0986975054560539,0.0994642957361287,0.10020580575322828,0.10023681377166105,0.10031959034273624,0.10081744101826273,0.10155879452883408,0.10166767741085621,0.10150105460832771,0.10214252307728984,0.10360267035437871,0.10444090432938208,0.10424907645087901,0.10389947871705962,0.10451549214261723,0.10566200300103688,0.10600191478293987,0.10632232094059257,0.10746496779156829,0.10877281648890952,0.10923303361379888,0.10938937555442355,0.10995630034482014,0.11054301456222808,0.11012568686828755,0.11016531570991304,0.11049245883301137,0.11112014029216584,0.111203768741872,0.11334879475589635,0.1173436248738497,0.1222825416936448,0.12608367493290198,0.12903599412848787,0.13181639949215782,0.13430715803829138,0.13587994551828125,0.13575664479117414,0.13324202170823826,0.1407731870857094,0.16352053852938905,0.2077171002465958,0.1102981466889053,0.04722314132292574,-0.023602089201979017,0.04119573038346512,0.05812213891866212,0.06368553849776441,0.0654964952533529,0.06636216694650851,0.06677552909016882,0.06685100279663081,0.06674057872278376,0.06632974891152273,0.06564982804584411,0.06548593773433214,0.06570904292846722,0.0665358113496355,0.06780976342610051,0.07002252111876066,0.07263824247481947,0.07484020737420204,0.07634990503912531,0.07711803821923223,0.0756084860654628,0.04540888084337066,0.015271040700675698,-0.012937191430741271,-0.012937191430741271,-0.012937191430741271,-0.012937191430741271,-0.012937191430741271,-0.012937191430741271,-0.012937191430741271,-0.012937191430741271,-0.012937191430741271,-0.012937191430741271,-0.012937191430741271,-0.012937191430741271,-0.012937191430741271,-0.012937191430741271,-0.012937191430741271,-0.012937191430741271,-0.012937191430741271,-0.012937191430741271,-0.012937191430741271,-0.012937191430741271,-0.012937191430741271,-0.012937191430741271,-0.012937191430741271,-0.012937191430741271,-0.012937191430741271,-0.012937191430741271,-0.012937191430741271,-0.012937191430741271,-0.012937191430741271,-0.012937191430741271,-0.012937191430741271,-0.012937191430741271,-0.012937191430741271,-0.012937191430741271,-0.012937191430741271,-0.012937191430741271,-0.012937191430741271,-0.012937191430741271,-0.012937191430741271,-0.012937191430741271,-0.012937191430741271,-0.012937191430741271,-0.012937191430741271,-0.012937191430741271,-0.012937191430741271,-0.012937191430741271,-0.012937191430741271,-0.012937191430741271,-0.012937191430741271,-0.012937191430741271,-0.012937191430741271,-0.012937191430741271,-0.012937191430741271,-0.012937191430741271,-0.012937191430741271,-0.012937191430741271,-0.012937191430741271,-0.012937191430741271,-0.012937191430741271,-0.012937191430741271,-0.012937191430741271,-0.012937191430741271,-0.012937191430741271,-0.012937191430741271,-0.012937191430741271,-0.012937191430741271,-0.012937191430741271,-0.012937191430741271
0.0985210874952507,0.09907482845042848,0.0999249199772695,0.10072034792111356,0.10094743541873051,0.10070464423243652,0.10082207449501109,0.10133755361472324,0.10197934227914877,0.10210976505397239,0.10242909443724948,0.10366286946116308,0.10521293179218409,0.10578495646413906,0.10554030271332836,0.10547131874468542,0.10650652287726048,0.10734171676882301,0.10762041308862919,0.10809035047308606,0.10905747260320021,0.10992473030978023,0.11024497865867426,0.11069953964466622,0.11140623558475177,0.11166701540113934,0.11090270934601157,0.11068429967246553,0.11209729995143793,0.11529048674855401,0.11964836252058951,0.10640415892079857,0.10808704750195082,0.10924512692214045,0.12769840176368052,0.13112899688240545,0.13314980391602607,0.1334821854721256,0.13161927831151646,0.1290298104079191,0.13467982811253681,0.1725615916360245,0.22635402132690197,0.2454354465066025,0.11905256474555032,0.024920266933608836,-0.02884417489476945,0.036397633851555936,0.05539419490047688,0.06180072926212449,0.06387107713721357,0.06510633337596769,0.0660889879063107,0.0664046975627296,0.06602605679657808,0.0657034185885695,0.06587895818426336,0.06708227785083577,0.06828820699963713,0.06962705683185713,0.07098964325809719,0.07292620308873708,0.07493251481344701,0.07639801663208243,0.07717839154737396,0.07710494664486238,0.0758664395003686,0.04558965464133882,0.015800601188573585,-0.012937191430741271,-0.012937191430741271,-0.012937191430741271,-0.012937191430741271,-0.012937191430741271,-0.012937191430741271,-0.012937191430741271,-0.012937191430741271,-0.012937191430741271,-0.012937191430741271,-0.012937191430741271,-0.012937191430741271,-0.012937191430741271,-0.012937191430741271,-0.012937191430741271,-0.012937191430741271,-0.012937191430741271,-0.012937191430741271,-0.012937191430741271,-0.012937191430741271,-0.012937191430741271,-0.012937191430741271,-0.012937191430741271,-0.012937191430741271,-0.012937191430741271,-0.012937191430741271,-0.012937191430741271,-0.012937191430741271,-0.012937191430741271,-0.012937191430741271,-0.012937191430741271,-0.012937191430741271,-0.012937191430741271,-0.012937191430741271,-0.012937191430741271,-0.012937191430741271,-0.012937191430741271,-0.012937191430741271,-0.012937191430741271,-0.012937191430741271,-0.012937191430741271,-0.012937191430741271,-0.012937191430741271,-0.012937191430741271,-0.012937191430741271,-0.012937191430741271,-0.012937191430741271,-0.012937191430741271,-0.012937191430741271,-0.012937191430741271,-0.012937191430741271,-0.012937191430741271,-0.012937191430741271,-0.012937191430741271,-0.012937191430741271,-0.012937191430741271,-0.012937191430741271,-0.012937191430741271,-0.012937191430741271,-0.012937191430741271,-0.012937191430741271,-0.012937191430741271,-0.012937191430741271,-0.012937191430741271,-0.012937191430741271,-0.012937191430741271,-0.012937191430741271,-0.012937191430741271
0.09920898036056465,0.10039606219051461,0.1018035471209418,0.10277449499351093,0.10276684247304259,0.10244465455833737,0.10249045059483876,0.10293825254949276,0.1034611023489029,0.10399817603246415,0.10488891912413582,0.10662633633614918,0.10805249900416207,0.10876486898544463,0.10909762578769272,0.110168326064386,0.11172651018433026,0.11240793225419277,0.11275335231496482,0.1135272699539995,0.11495315241304152,0.11597653025750007,0.11630358523321138,0.1158867738677942,0.11507458473076713,0.11421981176557913,0.1149171711424732,0.11835744233589758,0.10477970861488842,0.09117547492579312,0.07698656200973013,0.06329009172904916,0.06458309126897892,0.0814065389358042,0.11517197290319242,0.13327092987107697,0.13288361764741355,0.13011921854449401,0.12622019428546447,0.12608769580993562,0.15677778921644603,0.22410487705916915,0.30057914101490824,0.3093098450898097,0.1605658054233893,0.042518855630302055,-0.024197438392132835,0.03495824983658694,0.052542762808050314,0.058103260724949285,0.05923144156269485,0.05976200923129164,0.06016378208221629,0.06042007562674084,0.06041063552314828,0.061206984961876425,0.062366901461152674,0.06436440680681241,0.06591226017456413,0.06787398126516976,0.06935333771150966,0.07068017007355848,0.07150478023359419,0.07228365487340409,0.07261632657749977,0.07272549962010948,0.0722236486370771,0.043623751116366065,0.015187779222787634,-0.012937191430741271,-0.012937191430741271,-0.012937191430741271,-0.012937191430741271,-0.012937191430741271,-0.012937191430741271,-0.012937191430741271,-0.012937191430741271,-0.012937191430741271,-0.012937191430741271,-0.012937191430741271,-0.012937191430741271,-0.012937191430741271,-0.012937191430741271,-0.012937191430741271,-0.012937191430741271,-0.012937191430741271,-0.012937191430741271,-0.012937191430741271,-0.012937191430741271,-0.012937191430741271,-0.012937191430741271,-0.012937191430741271,-0.012937191430741271,-0.012937191430741271,-0.012937191430741271,-0.012937191430741271,-0.012937191430741271,-0.012937191430741271,-0.012937191430741271,-0.012937191430741271,-0.012937191430741271,-0.012937191430741271,-0.012937191430741271,-0.012937191430741271,-0.012937191430741271,-0.012937191430741271,-0.012937191430741271,-0.012937191430741271,-0.012937191430741271,-0.012937191430741271,-0.012937191430741271,-0.012937191430741271,-0.012937191430741271,-0.012937191430741271,-0.012937191430741271,-0.012937191430741271,-0.012937191430741271,-0.012937191430741271,-0.012937191430741271,-0.012937191430741271,-0.012937191430741271,-0.012937191430741271,-0.012937191430741271,-0.012937191430741271,-0.012937191430741271,-0.012937191430741271,-0.012937191430741271,-0.012937191430741271,-0.012937191430741271,-0.012937191430741271,-0.012937191430741271,-0.012937191430741271,-0.012937191430741271,-0.012937191430741271,-0.012937191430741271,-0.012937191430741271,-0.012937191430741271
0.10048175436400161,0.1016401946957936,0.1030330542330801,0.10371147557556082,0.10382998630592236,0.1038657243412571,0.1043772585916489,0.10494750175058064,0.10551371648685898,0.10637312141739322,0.10794009906772636,0.10993194736351511,0.1108363927587124,0.11099956160728235,0.11119294912583245,0.11249134401064559,0.1139243724879044,0.11466954418075183,0.11542588909449944,0.11613914177173458,0.11691573332716702,0.11701700985614459,0.11777259288215605,0.1182819984199979,0.11919412939002322,0.12076803337751507,0.10635146341131317,0.0940656852570365,0.06359134299906896,0.050557140023629106,0.0367909188281635,0.02160269360862529,0.019887098565971303,0.04831537665645887,0.09486312849140477,0.12588244855010663,0.1219704237003859,0.115796856439052,0.11004154420073832,0.11265942263011594,0.16435258848147136,0.24867971680263729,0.327754947916969,0.30497830255039493,0.15062031036946705,0.033351626886641575,-0.01629757839513898,0.037337511267456575,0.0546237210199838,0.05965751027582086,0.06075829846232876,0.061574316176302143,0.06200949645722202,0.06239716647334592,0.06257427239004852,0.06412828631401798,0.0659611809865631,0.06828927404796074,0.0695886670816488,0.07114007165123884,0.07193008028734614,0.07230033072135592,0.07234118410312773,0.07276136407036422,0.07309355765148204,0.07401412706905229,0.07444880053841807,0.04578248025226316,0.016358808065115103,-0.012937191430741271,-0.012937191430741271,-0.012937191430741271,-0.012937191430741271,-0.012937191430741271,-0.012937191430741271,-0.012937191430741271,-0.012937191430741271,-0.012937191430741271,-0.012937191430741271,-0.012937191430741271,-0.012937191430741271,-0.012937191430741271,-0.012937191430741271,-0.012937191430741271,-0.012937191430741271,-0.012937191430741271,-0.012937191430741271,-0.012937191430741271,-0.012937191430741271,-0.012937191430741271,-0.012937191430741271,-0.012937191430741271,-0.012937191430741271,-0.012937191430741271,-0.012937191430741271,-0.012937191430741271,-0.012937191430741271,-0.012937191430741271,-0.012937191430741271,-0.012937191430741271,-0.012937191430741271,-0.012937191430741271,-0.012937191430741271,-0.012937191430741271,-0.012937191430741271,-0.012937191430741271,-0.012937191430741271,-0.012937191430741271,-0.012937191430741271,-0.012937191430741271,-0.012937191430741271,-0.012937191430741271,-0.012937191430741271,-0.012937191430741271,-0.012937191430741271,-0.012937191430741271,-0.012937191430741271,-0.012937191430741271,-0.012937191430741271,-0.012937191430741271,-0.012937191430741271,-0.012937191430741271,-0.012937191430741271,-0.012937191430741271,-0.012937191430741271,-0.012937191430741271,-0.012937191430741271,-0.012937191430741271,-0.012937191430741271,-0.012937191430741271,-0.012937191430741271,-0.012937191430741271,-0.012937191430741271,-0.012937191430741271,-0.012937191430741271,-0.012937191430741271,-0.012937191430741271
0.10617320124307847,0.10786514664569323,0.10928693404622343,0.10969305334384781,0.10978109729459973,0.11002662594107858,0.11095144256684257,0.11159861685532807,0.11236555121359423,0.11354020871323649,0.1151400356161158,0.11623266836931917,0.11640180301198257,0.11658487848052565,0.11752856203563083,0.11897960468666545,0.12005194848298557,0.12078976316028678,0.12193418884632334,0.12317607348527017,0.12436945287205026,0.12653618372319106,0.11087169128485742,0.09466847015752429,0.07718049815554105,0.07883363327733929,0.06516662340111823,0.05323909571269266,0.021469313670039545,0.005293373651891017,-0.012937191430741271,-0.012937191430741271,-0.012937191430741271,0.03435333822509892,0.07972011789381789,0.12196107439358231,0.11439786124456566,0.1073674056934068,0.10436201909849589,0.11073291693318771,0.16842516185280035,0.25350198640931826,0.3317161665291743,0.34394048310906844,0.15864027371274167,0.03981942155736855,-0.04951132626979317,0.033870896265380826,0.05145395534826143,0.056089313189772186,0.05764899381955414,0.05938691125407054,0.060442708914799706,0.061459452313038156,0.06213077336369668,0.06404436379952924,0.06548975853165784,0.06707655181425898,0.06765626049617543,0.06847951563907832,0.06841683136762695,0.06833244918187009,0.06830201105567739,0.06854826674071225,0.06891334554832018,0.07065881684951435,0.07216694247705396,0.04477965344530882,0.01582513876703682,-0.012937191430741271,-0.012937191430741271,-0.012937191430741271,-0.012937191430741271,-0.012937191430741271,-0.012937191430741271,-0.012937191430741271,-0.012937191430741271,-0.012937191430741271,-0.012937191430741271,-0.012937191430741271,-0.012937191430741271,-0.012937191430741271,-0.012937191430741271,-0.012937191430741271,-0.012937191430741271,-0.012937191430741271,-0.012937191430741271,-0.012937191430741271,-0.012937191430741271,-0.012937191430741271,-0.012937191430741271,-0.012937191430741271,-0.012937191430741271,-0.012937191430741271,-0.012937191430741271,-0.012937191430741271,-0.012937191430741271,-0.012937191430741271,-0.012937191430741271,-0.012937191430741271,-0.012937191430741271,-0.012937191430741271,-0.012937191430741271,-0.012937191430741271,-0.012937191430741271,-0.012937191430741271,-0.012937191430741271,-0.012937191430741271,-0.012937191430741271,-0.012937191430741271,-0.012937191430741271,-0.012937191430741271,-0.012937191430741271,-0.012937191430741271,-0.012937191430741271,-0.012937191430741271,-0.012937191430741271,-0.012937191430741271,-0.012937191430741271,-0.012937191430741271,-0.012937191430741271,-0.012937191430741271,-0.012937191430741271,-0.012937191430741271,-0.012937191430741271,-0.012937191430741271,-0.012937191430741271,-0.012937191430741271,-0.012937191430741271,-0.012937191430741271,-0.012937191430741271,-0.012937191430741271,-0.012937191430741271,-0.012937191430741271,-0.012937191430741271,-0.012937191430741271,-0.012937191430741271
0.1091560436585416,0.11029754805584824,0.11060509094688056,0.11015698893739835,0.11034051296526731,0.11159707456634818,0.11366430051865728,0.11509069021932918,0.11661475489429597,0.11822216708215612,0.11972597519186118,0.12016533633824887,0.11998399780939141,0.12010461141069895,0.12078347245432605,0.1214088036115927,0.12211588321439569,0.1231156947718563,0.12405590639879578,0.12423126534209639,0.12557981118641887,0.11215117925670474,0.0816045870362638,0.04968011799271651,0.03331917479771327,0.0356018314626986,0.020316494359654748,0.004344693464478747,-0.012937191430741271,-0.012937191430741271,-0.012937191430741271,-0.012937191430741271,-0.012937191430741271,0.029638151130096053,0.06916301943920951,0.10595144234457933,0.0989304901253843,0.09509760031907993,0.09470663646420059,0.10009721384586531,0.14098686078318218,0.22890179619406312,0.31226922293212755,0.3141046619385695,0.09661466313274586,-0.0266943471157088,-0.08675348996695957,0.029330690616870055,0.052457951478917554,0.05905634775969408,0.06194814626631155,0.06437180431878733,0.06559002751041876,0.06640748033928015,0.06683883362957999,0.06830655700763498,0.06914403947657306,0.06990672109174051,0.06975538013811239,0.06979515459449116,0.06950046280765286,0.06960538996785107,0.0696882043231253,0.06961161209366605,0.07022978370177982,0.07279205966770347,0.07546766876887623,0.04725364650841232,0.017115471687041275,-0.012937191430741271,-0.012937191430741271,-0.012937191430741271,-0.012937191430741271,-0.012937191430741271,-0.012937191430741271,-0.012937191430741271,-0.012937191430741271,-0.012937191430741271,-0.012937191430741271,-0.012937191430741271,-0.012937191430741271,-0.012937191430741271,-0.012937191430741271,-0.012937191430741271,-0.012937191430741271,-0.012937191430741271,-0.012937191430741271,-0.012937191430741271,-0.012937191430741271,-0.012937191430741271,-0.012937191430741271,-0.012937191430741271,-0.012937191430741271,-0.012937191430741271,-0.012937191430741271,-0.012937191430741271,-0.012937191430741271,-0.012937191430741271,-0.012937191430741271,-0.012937191430741271,-0.012937191430741271,-0.012937191430741271,-0.012937191430741271,-0.012937191430741271,-0.012937191430741271,-0.012937191430741271,-0.012937191430741271,-0.012937191430741271,-0.012937191430741271,-0.012937191430741271,-0.012937191430741271,-0.012937191430741271,-0.012937191430741271,-0.012937191430741271,-0.012937191430741271,-0.012937191430741271,-0.012937191430741271,-0.012937191430741271,-0.012937191430741271,-0.012937191430741271,-0.012937191430741271,-0.012937191430741271,-0.012937191430741271,-0.012937191430741271,-0.012937191430741271,-0.012937191430741271,-0.012937191430741271,-0.012937191430741271,-0.012937191430741271,-0.012937191430741271,-0.012937191430741271,-0.012937191430741271,-0.012937191430741271,-0.012937191430741271,-0.012937191430741271,-0.012937191430741271,-0.012937191430741271
