-0.024570158467533753,-0.024570158467533753,-0.024570158467533753,-0.024570158467533753,-0.024570158467533753,-0.024570158467533753,-0.024570158467533753,-0.024570158467533753,-0.024570158467533753,-0.024570158467533753,-0.024570158467533753,-0.024570158467533753,-0.024570158467533753,-0.024570158467533753,-0.024570158467533753,-0.024570158467533753,-0.024570158467533753,-0.024570158467533753,-0.024570158467533753,-0.024570158467533753,-0.024570158467533753,-0.024570158467533753,-0.024570158467533753,-0.024570158467533753,-0.024570158467533753,-0.024570158467533753,-0.024570158467533753,-0.024570158467533753,-0.024570158467533753,-0.024570158467533753,-0.024570158467533753,-0.024570158467533753,-0.024570158467533753,-0.024570158467533753,-0.024570158467533753,-0.024570158467533753,-0.024570158467533753,-0.024570158467533753,-0.024570158467533753,-0.024570158467533753,-0.024570158467533753,-0.024570158467533753,-0.024570158467533753,-0.024570158467533753,-0.024570158467533753,-0.024570158467533753,-0.01571021887394715,0.003655793324057638,0.026915590401214468,0.04183209370659656,0.04613476437128921,0.046565527802947516,0.04698333906528338,0.04767897121331227,0.04824039913717701,0.04756603322613741,0.0463254685821271,0.046195070707218164,0.04643650174949911,0.04689313153606319,0.04685833912646803,0.04748353300711396,0.04936809980570523,0.05216832055859896,0.054054405211166535,0.05457220561663358,0.052979087758180554,0.052554114816450316,0.052667657644511756,0.053638785236168274,0.054280339200583505,0.05584450834646853,0.058122158933186424,0.06166631354654901,0.06717216355800013,0.07357130103688952,0.07973991545540776,0.0846224253559254,0.08809435561124669,0.09101452664419477,0.09200884984931659,0.09256547825180789,0.09222187166716882,0.09204234828488081,0.09160562988671783,0.09159300667377687,0.09103095631875298,0.09100627846531995,0.09101565113584997,0.09175572422043435,0.0919327005039829,0.09185857895714446,0.0912609320817983,0.09072365110053099,0.08991434692514363,0.0889969567752598,0.08816401917459124,0.08746350385054405,0.08687452445935337,0.08632504128172325,0.08579238622174856,0.08540990936482828,0.08516493001257097,0.08498742513614636,0.08502928775640857,0.08544391801067583,0.08592371100282868,0.08724129226356697,0.0895164952382783,0.09296663623132494,0.09621843825949286,0.09872333272748635,0.10006425586316586,0.10048983579171392,0.10029505902580219,0.09991438991858866,0.0992251052748587,0.09835432073990058,0.09783133422507209,0.09771452671406193,0.09802221699181826,0.09789830230542572,0.09795523476405217,0.09763120393199981,0.09751076067581572,0.09728978473598984,0.09760936926543266,0.09789518063524237,0.09803306984832676,0.09813764457263191,0.0981509516328994,0.09861089097282265,0.0989156631416143,0.09945897514473949,0.09972424218924174,0.09963238417100921,0.09893491223191732,0.09815547981242463,0.09730823049175759
-0.024570158467533753,-0.024570158467533753,-0.024570158467533753,-0.024570158467533753,-0.024570158467533753,-0.024570158467533753,-0.024570158467533753,-0.024570158467533753,-0.024570158467533753,-0.024570158467533753,-0.024570158467533753,-0.024570158467533753,-0.024570158467533753,-0.024570158467533753,-0.024570158467533753,-0.024570158467533753,-0.024570158467533753,-0.024570158467533753,-0.024570158467533753,-0.024570158467533753,-0.024570158467533753,-0.024570158467533753,-0.024570158467533753,-0.024570158467533753,-0.024570158467533753,-0.024570158467533753,-0.024570158467533753,-0.024570158467533753,-0.024570158467533753,-0.024570158467533753,-0.024570158467533753,-0.024570158467533753,-0.024570158467533753,-0.024570158467533753,-0.024570158467533753,-0.024570158467533753,-0.024570158467533753,-0.024570158467533753,-0.024570158467533753,-0.024570158467533753,-0.024570158467533753,-0.024570158467533753,-0.024570158467533753,-0.024570158467533753,-0.024570158467533753,-0.0243497962468303,-0.00983994541477584,0.011574795339036697,0.035614576272103494,0.045617349265493906,0.048489581607251406,0.04845011826392692,0.04836039222099896,0.048428156994440016,0.04801625830250742,0.04735910366218714,0.0466361875023322,0.04758874092268894,0.0484557791593415,0.04959908694489537,0.05001022746805937,0.051211165957279196,0.05278276490182297,0.05509916181305974,0.05648411104872809,0.05742411683885411,0.05671241132422773,0.05738379155900957,0.05852151035021422,0.060280983155973335,0.06170564278333042,0.06382941414886133,0.06632032309014398,0.06926983718263843,0.07350243460020196,0.07919467534887,0.08488902125446954,0.08950628097244105,0.09219128123587043,0.09417970499691182,0.09479314785498962,0.0952337605499486,0.09482662402329504,0.0940429495122118,0.0931219532074991,0.09271167876369012,0.09180951972347497,0.0910597173928613,0.09058084527479389,0.09151896536013464,0.09272878374049852,0.093388114368066,0.09291336811123717,0.09186457672174778,0.09041288360923752,0.08916242205107866,0.0882796741827354,0.08767728616935118,0.08711618028729284,0.08650223328875864,0.0857326663283968,0.08506780086201078,0.08457969387335483,0.08443891433649767,0.08465851119746297,0.08517059207864493,0.08545524648904457,0.0857429835493854,0.08643290915241711,0.08863446454667191,0.09180251773667035,0.09546061590036949,0.09837557849926608,0.10027967950206085,0.10097581514735904,0.10092529448156094,0.10011161166192833,0.09874937952284624,0.09760400305563412,0.09723922849819994,0.09750315042609561,0.0973772343214477,0.09706881822313035,0.09631340729283254,0.09612306499573454,0.09600074067192034,0.09651158967789779,0.09691534740510938,0.09700335945095442,0.09673226687402896,0.09635268397779656,0.09644561471453456,0.09688602857708994,0.09747799751624614,0.09792208106770808,0.09795860376279748,0.0974200955859162,0.09666753217578562,0.09574922378768808
-0.024570158467533753,-0.024570158467533753,-0.024570158467533753,-0.024570158467533753,-0.024570158467533753,-0.024570158467533753,-0.024570158467533753,-0.024570158467533753,-0.024570158467533753,-0.024570158467533753,-0.024570158467533753,-0.024570158467533753,-0.024570158467533753,-0.024570158467533753,-0.024570158467533753,-0.024570158467533753,-0.024570158467533753,-0.024570158467533753,-0.024570158467533753,-0.024570158467533753,-0.024570158467533753,-0.024570158467533753,-0.024570158467533753,-0.024570158467533753,-0.024570158467533753,-0.024570158467533753,-0.024570158467533753,-0.024570158467533753,-0.024570158467533753,-0.024570158467533753,-0.024570158467533753,-0.024570158467533753,-0.024570158467533753,-0.024570158467533753,-0.024570158467533753,-0.024570158467533753,-0.024570158467533753,-0.024570158467533753,-0.024570158467533753,-0.024570158467533753,-0.024570158467533753,-0.024570158467533753,-0.024570158467533753,-0.024570158467533753,-0.0550260557743298,-0.05244570730317686,-0.0337140635804343,0.02013964329279997,0.04231530265100032,0.04838888509048773,0.04926192653723331,0.04853227175552112,0.047652004068212385,0.04744919129572993,0.047155100058996244,0.04718891304801349,0.04713649894569086,0.048119965436776685,0.049303370686329874,0.05079161963496593,0.05249423323229094,0.054256463603042315,0.05664784279206533,0.05905760941903466,0.06055486465105524,0.06123951096121042,0.060934530144565485,0.062110331590401795,0.06336543342265284,0.06436971204835336,0.06584098507094095,0.06859065652621824,0.07182503138452748,0.07441864916952856,0.07714251554418461,0.08124864418713076,0.08550497237870393,0.08977771733356865,0.09231320334950957,0.09360297583946141,0.0932438446311055,0.09330059753054142,0.09352592890988774,0.09313554658371273,0.09229843721394491,0.09170597258607914,0.0912147693307955,0.09060471102527183,0.08985203763907883,0.08985198145578463,0.09085988593499435,0.09219803680005588,0.0928549867230993,0.09247683365675081,0.09103144818398487,0.08960250499574565,0.08849058867476879,0.08796216295612722,0.087617341268934,0.08714720152744378,0.08636936830370243,0.08567827065606151,0.08511766706260508,0.08489243739563308,0.08490481500478575,0.08525983342562957,0.08564108630799416,0.08588700203994727,0.08572154176981475,0.08628932344405885,0.08767317110022999,0.09054081846144973,0.09411059759873859,0.09773553428157318,0.10030615211909236,0.10122528110692194,0.10081907221697341,0.09926370711539124,0.09807778851444364,0.09755547664805288,0.09797536992234601,0.09785955477830026,0.09719770302793904,0.09626295607929293,0.0957987618110543,0.09581590620078477,0.0959954886017705,0.09616763797730504,0.0959312678049187,0.09550008712421836,0.09497012160891503,0.09467613475664255,0.09495248692984844,0.09557375152127157,0.09657348533724523,0.09679556580333362,0.09599878057682568,0.09389889981385657,0.09088616344797043
-0.024570158467533753,-0.024570158467533753,-0.024570158467533753,-0.024570158467533753,-0.024570158467533753,-0.024570158467533753,-0.024570158467533753,-0.024570158467533753,-0.024570158467533753,-0.024570158467533753,-0.024570158467533753,-0.024570158467533753,-0.024570158467533753,-0.024570158467533753,-0.024570158467533753,-0.024570158467533753,-0.024570158467533753,-0.024570158467533753,-0.024570158467533753,-0.024570158467533753,-0.024570158467533753,-0.024570158467533753,-0.024570158467533753,-0.024570158467533753,-0.024570158467533753,-0.024570158467533753,-0.024570158467533753,-0.024570158467533753,-0.024570158467533753,-0.024570158467533753,-0.024570158467533753,-0.024570158467533753,-0.024570158467533753,-0.024570158467533753,-0.024570158467533753,-0.024570158467533753,-0.024570158467533753,-0.024570158467533753,-0.024570158467533753,-0.024570158467533753,-0.024570158467533753,-0.024570158467533753,-0.024570158467533753,-0.024570158467533753,-0.0799693069764255,-0.07496406768210928,-0.05411710369055075,0.025781779989308647,0.04564296754387785,0.04981859766364565,0.04969378053594085,0.049111618875820454,0.04797320863826178,0.047455155170924405,0.046882668835133805,0.04716243036017891,0.04779979651801623,0.04922989261688521,0.05097092215635947,0.05287034182856823,0.055253950904868634,0.05740302830845622,0.06009953055852684,0.06258096631409375,0.06407719102167163,0.06446206189364267,0.0641166794269494,0.06525944837001299,0.06708616994308923,0.0682236419312688,0.07003292337393409,0.07271561322844873,0.07636747235543216,0.07932586972465747,0.08198165688064826,0.08501133902175746,0.08784859614902683,0.09138017663882281,0.09407350896924388,0.09586415301422288,0.09573093362488601,0.09555225334559136,0.09512001336334149,0.09394268772976695,0.09241872343277009,0.09138624533320948,0.09085088468932492,0.09042075860180264,0.08956100475892514,0.08943842079690989,0.09034565388141765,0.09194881245692385,0.09286252157103507,0.09263458702724434,0.0912805005321923,0.08971547131034564,0.08818064602001593,0.08728477441325494,0.08691260770804404,0.08680168090490926,0.08623847365030377,0.08566798805000278,0.0849955405875058,0.08462605857791844,0.08421353847749476,0.08426543016192653,0.08447233842591886,0.0847128447407008,0.08449852020278699,0.08430661554897327,0.0844184373272555,0.08552472543475195,0.08799367911599776,0.0915008229162265,0.09535453665817668,0.09823777536242982,0.09974821203292925,0.0992505546543707,0.09834952228374538,0.09765238935612808,0.0979230995383787,0.09763003109386323,0.09658841227288854,0.09533005346753193,0.0945657427066077,0.09464677411533158,0.0946395941413251,0.09478657653955373,0.09433990795216629,0.09404241423706006,0.0937876145225531,0.09366933542252034,0.09379514674117882,0.09367194364941972,0.0930022062862368,0.09056790999980778,0.0869413910541914,0.08258313930203295,0.0781076744074918
-0.024570158467533753,-0.024570158467533753,-0.024570158467533753,-0.024570158467533753,-0.024570158467533753,-0.024570158467533753,-0.024570158467533753,-0.024570158467533753,-0.024570158467533753,-0.024570158467533753,-0.024570158467533753,-0.024570158467533753,-0.024570158467533753,-0.024570158467533753,-0.024570158467533753,-0.024570158467533753,-0.024570158467533753,-0.024570158467533753,-0.024570158467533753,-0.024570158467533753,-0.024570158467533753,-0.024570158467533753,-0.024570158467533753,-0.024570158467533753,-0.024570158467533753,-0.024570158467533753,-0.024570158467533753,-0.024570158467533753,-0.024570158467533753,-0.024570158467533753,-0.024570158467533753,-0.024570158467533753,-0.024570158467533753,-0.024570158467533753,-0.024570158467533753,-0.024570158467533753,-0.024570158467533753,-0.024570158467533753,-0.024570158467533753,-0.024570158467533753,-0.024570158467533753,-0.024570158467533753,-0.024570158467533753,-0.024570158467533753,-0.10996526740964283,-0.10269440198758494,-0.08053155949468783,0.030317903983299963,0.048375708132305795,0.05127304016797584,0.050123783459290555,0.048929555962630995,0.04741366037142027,0.04672219433268977,0.04632172848752648,0.04697210150223302,0.04777099020660589,0.04869741336645723,0.049897673249154846,0.051392241231766396,0.05456639363615415,0.05795647653312183,0.061824480840849835,0.06436941983183447,0.06564803256811308,0.0663342272163748,0.06689096708680022,0.06860344799155424,0.07088503298443727,0.07248129543793014,0.07441522776708064,0.07659598628388728,0.07989950571664552,0.08262819758180671,0.08487363013708853,0.0864050609947088,0.08760462409266553,0.09021510514885783,0.0925891958248845,0.09475381466933065,0.09480755466258119,0.09506475926567978,0.09500631955363881,0.09391066732401004,0.0924214413526479,0.09112065412147628,0.09055158999459861,0.09016503874596413,0.08931236933175234,0.08900448802121326,0.08936234144208083,0.09067449927552784,0.09186071086578543,0.09195146902572456,0.09097295376431619,0.08921484736822771,0.08745146181697915,0.08624130130121822,0.08572412949797759,0.08566912397215479,0.08530836263041881,0.0851017131598791,0.08486373864518647,0.08490535545185056,0.08469996711052183,0.08460781475260527,0.08471853419381671,0.08489430219440716,0.08486697000396744,0.08457321589054675,0.08413157210839535,0.08389308621823786,0.08460314802019547,0.08654336638139486,0.08970153073629811,0.09341484339022135,0.09715627010841812,0.09880135228827769,0.09878314264101,0.0978794132203065,0.0978369065154258,0.09748194816162409,0.09648647290816506,0.09536397529925207,0.0944508017120529,0.09418693210102938,0.09376988422909678,0.09382839208388881,0.09309056079409786,0.0922707497274065,0.09085613665013159,0.08952976608995276,0.08790896184850579,0.08565958949932652,0.08253185836039979,0.07812308530757789,0.07327340508418924,0.06776250330850737,0.06244229266606232
-0.024570158467533753,-0.024570158467533753,-0.024570158467533753,-0.024570158467533753,-0.024570158467533753,-0.024570158467533753,-0.024570158467533753,-0.024570158467533753,-0.024570158467533753,-0.024570158467533753,-0.024570158467533753,-0.024570158467533753,-0.024570158467533753,-0.024570158467533753,-0.024570158467533753,-0.024570158467533753,-0.024570158467533753,-0.024570158467533753,-0.024570158467533753,-0.024570158467533753,-0.024570158467533753,-0.024570158467533753,-0.024570158467533753,-0.024570158467533753,-0.024570158467533753,-0.024570158467533753,-0.024570158467533753,-0.024570158467533753,-0.024570158467533753,-0.024570158467533753,-0.024570158467533753,-0.024570158467533753,-0.024570158467533753,-0.024570158467533753,-0.024570158467533753,-0.024570158467533753,-0.024570158467533753,-0.024570158467533753,-0.024570158467533753,-0.024570158467533753,-0.024570158467533753,-0.024570158467533753,-0.024570158467533753,-0.024570158467533753,-0.11609620822088665,-0.10943399263823875,-0.08749298116343898,0.029591278660714933,0.04867128351176167,0.05185920053201879,0.05096236098556703,0.04988214871098024,0.04892676221162981,0.04827141904435196,0.04762563200626083,0.047910630681886245,0.04871491082992207,0.04978518354263041,0.05060299123020642,0.05155013863739289,0.05414265133488024,0.058386627613898304,0.06268019116616078,0.06572866948629327,0.06672837263760563,0.06802724510665853,0.06908957246321534,0.07134989695598543,0.07368868098030029,0.07603369218218022,0.07828387068518967,0.08030171324496749,0.08287563736442637,0.08490446553797593,0.08675989148347311,0.08782068564474425,0.0886586585044643,0.09086721930654539,0.09292656994327658,0.09524084233840374,0.09572311618886124,0.09632442728094531,0.09630339048086681,0.09514490714480821,0.09338829357748477,0.09167760053772442,0.09072949684781662,0.09023942679747605,0.08945671355309605,0.0893255056823606,0.08950538863007243,0.09043381018952833,0.09143068340777182,0.09142811631562689,0.09055896194253708,0.08878122948066366,0.08715122255054662,0.08570709620545479,0.08475797756843154,0.08427063803289302,0.08383628326380772,0.08358378994262688,0.08345044384479601,0.08366612483381844,0.08368640931060436,0.08350072336440259,0.08340663257176646,0.08344735912481142,0.08356662040896602,0.08345778941846807,0.08315423048706622,0.0826558936565453,0.08244838186072576,0.08284584445007512,0.08433999006544449,0.08700458471903674,0.09088719978005236,0.09422310009482274,0.09615648273937884,0.09671456025710283,0.097033122452805,0.09665559869854615,0.09558059781894959,0.09410610148058382,0.09303799587665691,0.09223110005068581,0.09127630561200026,0.09031382046932106,0.08842454751157544,0.08614438107135014,0.08313844642763411,0.0804017554168095,0.07719434812442419,0.07307958862334413,0.06775179125346353,0.06172293066835604,0.056235321281518466,0.051643080874847216,0.048546118282652845
-0.024570158467533753,-0.024570158467533753,-0.024570158467533753,-0.024570158467533753,-0.024570158467533753,-0.024570158467533753,-0.024570158467533753,-0.024570158467533753,-0.024570158467533753,-0.024570158467533753,-0.024570158467533753,-0.024570158467533753,-0.024570158467533753,-0.024570158467533753,-0.024570158467533753,-0.024570158467533753,-0.024570158467533753,-0.024570158467533753,-0.024570158467533753,-0.024570158467533753,-0.024570158467533753,-0.024570158467533753,-0.024570158467533753,-0.024570158467533753,-0.024570158467533753,-0.024570158467533753,-0.024570158467533753,-0.024570158467533753,-0.024570158467533753,-0.024570158467533753,-0.024570158467533753,-0.024570158467533753,-0.024570158467533753,-0.024570158467533753,-0.024570158467533753,-0.024570158467533753,-0.024570158467533753,-0.024570158467533753,-0.024570158467533753,-0.024570158467533753,-0.024570158467533753,-0.024570158467533753,-0.024570158467533753,-0.024570158467533753,-0.1284670636581826,-0.1237628590648718,-0.10271058805094144,0.02637597634162038,0.04724858288348257,0.050909560656846854,0.050257669771475735,0.04892262662013905,0.04786469706671262,0.04677295505854099,0.04557593273944999,0.045406045394106656,0.045845344339751036,0.04732132033541169,0.04898578548382747,0.05096734908640181,0.053747949473002,0.05761174811956789,0.06157508013673723,0.0650309223977746,0.06726774810933646,0.06959661126421482,0.07108775141264462,0.07289547503501992,0.07466575144844532,0.07716373548825393,0.07945878183416363,0.08162405797134506,0.08371640759706989,0.0856474236538444,0.08702414021636791,0.0879069332641344,0.08837929621529854,0.08980979894662171,0.09130485358934469,0.09314437983509606,0.09387490645333539,0.0946786366919932,0.09517426202688069,0.09479833860860115,0.09362444833242695,0.09203215187282106,0.09071382086618955,0.08993703376315795,0.08928679061774267,0.08922912550618908,0.08915177472837738,0.08969816736984941,0.09046904231977318,0.09032040099863632,0.0891544159037959,0.08747378191457254,0.08627303116497294,0.0852442756176579,0.08420632719910257,0.083355366177678,0.082724742087593,0.08247263762683768,0.08276147974771787,0.08342971125362149,0.08397810110748184,0.08407634549043921,0.08407578171309661,0.08406978786846053,0.08404324711007374,0.08376880104742335,0.0835279316792692,0.08327282354598926,0.08318164235670204,0.0829156239013656,0.08281050847833084,0.08356087284154916,0.08573946874724103,0.088520310872288,0.0912676617824236,0.0936589393248753,0.09573418910149185,0.09596377424522803,0.0944520295414803,0.09191390928382485,0.08969736760059523,0.08735307598676925,0.08429983716717114,0.08106160316223261,0.07758470636533135,0.07424227503416742,0.07032509670635638,0.06656634876150323,0.06249541596748228,0.058000402243955876,0.05334595950249481,0.04946996065797094,0.04682863635401108,0.04483286650416354,0.04332917036093202
-0.024570158467533753,-0.024570158467533753,-0.024570158467533753,-0.024570158467533753,-0.024570158467533753,-0.024570158467533753,-0.024570158467533753,-0.024570158467533753,-0.024570158467533753,-0.024570158467533753,-0.024570158467533753,-0.024570158467533753,-0.024570158467533753,-0.024570158467533753,-0.024570158467533753,-0.024570158467533753,-0.024570158467533753,-0.024570158467533753,-0.024570158467533753,-0.024570158467533753,-0.024570158467533753,-0.024570158467533753,-0.024570158467533753,-0.024570158467533753,-0.024570158467533753,-0.024570158467533753,-0.024570158467533753,-0.024570158467533753,-0.024570158467533753,-0.024570158467533753,-0.024570158467533753,-0.024570158467533753,-0.024570158467533753,-0.024570158467533753,-0.024570158467533753,-0.024570158467533753,-0.024570158467533753,-0.024570158467533753,-0.024570158467533753,-0.024570158467533753,-0.024570158467533753,-0.024570158467533753,-0.024570158467533753,-0.024570158467533753,-0.0984711032249653,-0.09781009723982893,-0.07690736534626919,0.02284317679290252,0.04851192985161055,0.05324153512353202,0.052837035875826714,0.051367414111925365,0.05009265543320649,0.048468861132704176,0.046880132202942924,0.045991713323904705,0.045907517017866654,0.04752683830442132,0.050147235099125984,0.053270847754814096,0.05610508473869508,0.05951776777589488,0.06341633991761297,0.06717589572700174,0.06939946631962918,0.07087998643400513,0.07191802074414837,0.0737943803679069,0.0758628096644234,0.07829039542523519,0.08040441844123086,0.0825010643887932,0.08458146080810226,0.08629001306425763,0.08732634876085403,0.0884807195304418,0.08939568845296275,0.09080356471833292,0.09192746046083775,0.09335659383563018,0.0943208577204408,0.09544198409401075,0.09617558589175665,0.09621859148801118,0.09478882638897558,0.09314744669288036,0.09166648195882318,0.09098509385194689,0.09015483668759247,0.08952108856287008,0.08900049742222825,0.08930810332818509,0.09008339486325517,0.09026450096460423,0.08927022442844261,0.08787953409380757,0.08678545257160786,0.08576058233623078,0.08456718381891115,0.08348781354088367,0.08264411937411847,0.08217409365469633,0.08208427196553898,0.08235641642389914,0.08253738739970165,0.08252365560405543,0.08254205778221074,0.08270052051988253,0.0827835116329869,0.08266693739343105,0.08262181798712698,0.08253466519866634,0.0825111904985534,0.08234211737379125,0.08222612740175272,0.08211382054754651,0.08234495223122046,0.0833988927842554,0.08538112644575478,0.08814842655107609,0.09084718493342059,0.09142467376507338,0.08960519990102775,0.08572281940276626,0.0816380373533441,0.0773965279129294,0.07273236470266096,0.0681791407460812,0.06410458033093412,0.06110826222041411,0.05851310182855993,0.05590338773653447,0.05293337824976113,0.049751319571397105,0.04677758056362933,0.044453597517850954,0.04300079199666735,0.042213786138135215,0.04161212382166944
-0.024570158467533753,-0.024570158467533753,-0.024570158467533753,-0.024570158467533753,-0.024570158467533753,-0.024570158467533753,-0.024570158467533753,-0.024570158467533753,-0.024570158467533753,-0.024570158467533753,-0.024570158467533753,-0.024570158467533753,-0.024570158467533753,-0.024570158467533753,-0.024570158467533753,-0.024570158467533753,-0.024570158467533753,-0.024570158467533753,-0.024570158467533753,-0.024570158467533753,-0.024570158467533753,-0.024570158467533753,-0.024570158467533753,-0.024570158467533753,-0.024570158467533753,-0.024570158467533753,-0.024570158467533753,-0.024570158467533753,-0.024570158467533753,-0.024570158467533753,-0.024570158467533753,-0.024570158467533753,-0.024570158467533753,-0.024570158467533753,-0.024570158467533753,-0.024570158467533753,-0.024570158467533753,-0.024570158467533753,-0.024570158467533753,-0.024570158467533753,-0.024570158467533753,-0.024570158467533753,-0.024570158467533753,-0.024570158467533753,-0.06188426510692543,-0.07298651050388215,-0.054504380644457846,0.008226628424803335,0.04580768622617417,0.05333352178729547,0.05329659072285794,0.05161095632848628,0.049677902260352756,0.04753490507542099,0.04585954398776638,0.045257313261193796,0.04527946949554783,0.0464011299689534,0.04911372445833507,0.052937395226371316,0.056459693871743044,0.05954080684420752,0.06343327606077133,0.06683827697193778,0.06893056129971517,0.0696003998083747,0.07058854383344254,0.0727977917445862,0.07575285409903909,0.078781924196272,0.08097908390510732,0.08266700459011168,0.08450383734847587,0.08639114257288104,0.08760275287460374,0.08870007015000897,0.08916258178358395,0.09001962996732056,0.09075357739435579,0.09209009196469962,0.09335036672357874,0.09494677243629325,0.09605714854760672,0.09658599102945468,0.09529307411077399,0.09345248640584775,0.09145090807196238,0.09032758870033386,0.08961612748636086,0.08915649734050961,0.0888413345956718,0.08889118255658765,0.08952111769114361,0.0899738799799904,0.08928982267793434,0.08795008158517015,0.08651860680995488,0.08568345983600636,0.08496375519795005,0.08434416431456168,0.08366063897431938,0.08315327382816323,0.08300719363988973,0.0830814172127288,0.08314135217301882,0.08310474470688076,0.08320142869109219,0.08339693176149142,0.08345934370198446,0.08342392378017786,0.08342629353985552,0.08346687297603411,0.08325440915165132,0.08289716843486461,0.08267370083122542,0.08266784209031658,0.08259683425455491,0.08248849712859277,0.08276126246800113,0.08356980388580997,0.0843359969336594,0.08338415915389553,0.08051093177118404,0.07612545143697481,0.07138495802359772,0.06669182357645154,0.0619063083084335,0.05773479947512499,0.054506377132048825,0.05249278962942411,0.051115723032758374,0.04950600765687953,0.0474949759130666,0.04549042776258181,0.043787197656729754,0.04294408602411678,0.0425478768077933,0.04256983026156872,0.04205013850934581
-0.024570158467533753,-0.024570158467533753,-0.024570158467533753,-0.024570158467533753,-0.024570158467533753,-0.024570158467533753,-0.024570158467533753,-0.024570158467533753,-0.024570158467533753,-0.024570158467533753,-0.024570158467533753,-0.024570158467533753,-0.024570158467533753,-0.024570158467533753,-0.024570158467533753,-0.024570158467533753,-0.024570158467533753,-0.024570158467533753,-0.024570158467533753,-0.024570158467533753,-0.024570158467533753,-0.024570158467533753,-0.024570158467533753,-0.024570158467533753,-0.024570158467533753,-0.024570158467533753,-0.024570158467533753,-0.024570158467533753,-0.024570158467533753,-0.024570158467533753,-0.024570158467533753,-0.024570158467533753,-0.024570158467533753,-0.024570158467533753,-0.024570158467533753,-0.024570158467533753,-0.024570158467533753,-0.024570158467533753,-0.024570158467533753,-0.024570158467533753,-0.024570158467533753,-0.024570158467533753,-0.024570158467533753,-0.024570158467533753,-0.024570158467533753,-0.07345339033770834,-0.0589648251952781,-0.03330415463776627,0.04372960664515427,0.05722684051268512,0.058634216426964494,0.0567516942149177,0.054684015960038176,0.05259975334885329,0.05127214958855472,0.05050599442038337,0.05075379641876197,0.05140315674393777,0.05371550911936846,0.056448934761277346,0.05979354465817489,0.06261828152440314,0.06642294407823066,0.06873206700503769,0.06928261999664251,0.0688466464313247,0.07043431024614538,0.07432890443155836,0.07837300379711494,0.08135504989966438,0.08282798171901883,0.08411627762525634,0.08624397375714446,0.08844586713347795,0.08997875014222606,0.09058210191995814,0.09054985791518258,0.09088604181478979,0.09092840049216688,0.09187526951826602,0.09307613645528623,0.09529082347758448,0.09664577395703869,0.09722561371355316,0.09577721962105067,0.09398325510428407,0.09191069377152156,0.09061691443153039,0.08984521239236712,0.08932828739068512,0.08897695277240499,0.08868660494762037,0.08925747603354578,0.09029561359928634,0.09059328543623187,0.0895482658298862,0.08766499199860465,0.08614240411335336,0.08507702733602251,0.0842884371568763,0.08347330727676976,0.08289573907909194,0.0825366180295696,0.08243357478070287,0.08236702383168858,0.08229663465952386,0.08228774441130265,0.0825352126213301,0.08267255044218055,0.08294043055452674,0.08297303268124075,0.08315017423445521,0.08299567992189182,0.08285769416467802,0.08266827520574167,0.08269369628533982,0.08285431962572125,0.08282662298171377,0.08203431509137848,0.08055409808754764,0.07803606906713983,0.07457479350690809,0.07016861248556977,0.06558616763044892,0.06105151115007871,0.057160903632505526,0.05407560404663248,0.05216255136691011,0.0507834593490621,0.04954670803813147,0.048610905725758775,0.04763280574068141,0.046259402122771485,0.04478893338026954,0.043481424681983835,0.042975065843952005,0.04251144480318712,0.04222991170234484,0.04199355522399191
-0.024570158467533753,-0.024570158467533753,-0.024570158467533753,-0.024570158467533753,-0.024570158467533753,-0.024570158467533753,-0.024570158467533753,-0.024570158467533753,-0.024570158467533753,-0.024570158467533753,-0.024570158467533753,-0.024570158467533753,-0.024570158467533753,-0.024570158467533753,-0.024570158467533753,-0.024570158467533753,-0.024570158467533753,-0.024570158467533753,-0.024570158467533753,-0.024570158467533753,-0.024570158467533753,-0.024570158467533753,-0.024570158467533753,-0.024570158467533753,-0.024570158467533753,-0.024570158467533753,-0.024570158467533753,-0.024570158467533753,-0.024570158467533753,-0.024570158467533753,-0.024570158467533753,-0.024570158467533753,-0.024570158467533753,-0.024570158467533753,-0.024570158467533753,-0.024570158467533753,-0.024570158467533753,-0.024570158467533753,-0.024570158467533753,-0.024570158467533753,-0.024570158467533753,-0.024570158467533753,-0.024570158467533753,-0.024570158467533753,-0.024570158467533753,-0.07189618007797906,-0.06897915582965955,-0.04627652500527399,0.029041349945063473,0.05453767782399741,0.059150345154019145,0.05764717350342268,0.05525375142318747,0.053611192553504224,0.0527265215587084,0.05258191335678501,0.05333154236791963,0.054541942583642304,0.05616421542907224,0.05769376948829195,0.05986166472108138,0.062150839368676526,0.06512381076617772,0.06701677962546354,0.06818621405237436,0.06843679862014383,0.07038842261479003,0.0743752012599982,0.07891027348742188,0.08260609395708564,0.08438587844458649,0.08603667018463067,0.08775099359194966,0.09007814298008561,0.09158771607757397,0.09198443174142877,0.09138717468536009,0.09103383401890103,0.0906542050335107,0.09125260112441196,0.09238979041409819,0.09475575789311555,0.09612687434526929,0.09659182703589461,0.09525359614393761,0.09328033944006739,0.0910237062730257,0.08968510292513207,0.08951944279110578,0.08961797078679926,0.08922067315458418,0.0884829405469727,0.0886713789064227,0.09002254934501223,0.09069143060180253,0.08997565982845604,0.08787577892849326,0.08650274182051394,0.08566506223260276,0.08521036641217196,0.08449383401783443,0.08376924754577424,0.0834174920335582,0.08329328141549167,0.0832863754275245,0.08321442605656337,0.08301239818640875,0.08310941946684515,0.08318922722488073,0.08350963212344326,0.08350776109265479,0.08358883750270653,0.08335785485233425,0.08329760612157612,0.08304047259569723,0.0831026809042532,0.08318611598741363,0.08339737992702799,0.08280054657987945,0.08064541443571321,0.07581429351271668,0.0693673322737849,0.0630989746677329,0.05844058390531026,0.05516525520695176,0.052720049613321565,0.051048553850804194,0.05040919327628449,0.05004380243795317,0.048941019652733286,0.04739526976398632,0.04579125761238266,0.04446615721269029,0.04313471728621728,0.04184483347342454,0.04145068353894174,0.04118164750301659,0.041364547587333066,0.04172157688839505
-0.024570158467533753,-0.024570158467533753,-0.024570158467533753,-0.024570158467533753,-0.024570158467533753,-0.024570158467533753,-0.024570158467533753,-0.024570158467533753,-0.024570158467533753,-0.024570158467533753,-0.024570158467533753,-0.024570158467533753,-0.024570158467533753,-0.024570158467533753,-0.024570158467533753,-0.024570158467533753,-0.024570158467533753,-0.024570158467533753,-0.024570158467533753,-0.024570158467533753,-0.024570158467533753,-0.024570158467533753,-0.024570158467533753,-0.024570158467533753,-0.024570158467533753,-0.024570158467533753,-0.024570158467533753,-0.024570158467533753,-0.024570158467533753,-0.024570158467533753,-0.024570158467533753,-0.024570158467533753,-0.024570158467533753,-0.024570158467533753,-0.024570158467533753,-0.024570158467533753,-0.024570158467533753,-0.024570158467533753,-0.024570158467533753,-0.024570158467533753,-0.024570158467533753,-0.024570158467533753,-0.024570158467533753,-0.024570158467533753,-0.024570158467533753,-0.06188426510692543,-0.08237975730618963,-0.06224015770923395,0.004133110241117427,0.055159511736681224,0.0647822063593779,0.06447332980658371,0.0621574589474083,0.060349354763680266,0.05940018531100383,0.05879930432347421,0.059146310352526724,0.060451273854331584,0.06214755762092607,0.06383238763807764,0.0651485660857271,0.06681311785284505,0.06782144803162032,0.06868367836781752,0.06964949622983883,0.07060774866868275,0.07273042155769381,0.07562847765035001,0.07993399444331377,0.08425718108260205,0.08692308017209652,0.08871742722065719,0.08963680296944602,0.09121719890810227,0.09218513932475307,0.09265223651432612,0.09251654151747143,0.09239901105589615,0.09176144084076829,0.09235710607575022,0.09362178165490823,0.09578160785108826,0.0964378494706245,0.09633931065787826,0.09519649104555608,0.09360593308471266,0.09137461842452065,0.08976044415307435,0.08953052306636766,0.08981554892218825,0.08961501128754815,0.08891236907809084,0.08890361665395145,0.0897573600764157,0.09040661123501743,0.0900216884192625,0.08833995611501533,0.08666121292212285,0.08521112311019935,0.08432254606820004,0.08344975944345369,0.08280467314786669,0.08245418908130699,0.08241927419906567,0.0824624728166363,0.08256415569381968,0.08241314225157696,0.08242786083983573,0.08245058731737713,0.08284205083084521,0.08312011560001677,0.0834463361156071,0.08340086265492212,0.08338407401789662,0.08323645170258287,0.08331897880592176,0.08330934519569366,0.08325055069126547,0.08212733064046716,0.07955615985166904,0.07406918279242769,0.06673653719523003,0.059716092597923404,0.05485479735749931,0.052141947482974155,0.05052142738276403,0.04969639199279586,0.049898154381305126,0.05006209939665788,0.04940721808686225,0.048138186917824795,0.04654037556318598,0.04534030832664448,0.04385797552538943,0.042676412649918456,0.04203057930727902,0.04171192432047316,0.04188827664463365,0.042465164489781715
-0.024570158467533753,-0.024570158467533753,-0.024570158467533753,-0.024570158467533753,-0.024570158467533753,-0.024570158467533753,-0.024570158467533753,-0.024570158467533753,-0.024570158467533753,-0.024570158467533753,-0.024570158467533753,-0.024570158467533753,-0.024570158467533753,-0.024570158467533753,-0.024570158467533753,-0.024570158467533753,-0.024570158467533753,-0.024570158467533753,-0.024570158467533753,-0.024570158467533753,-0.024570158467533753,-0.024570158467533753,-0.024570158467533753,-0.024570158467533753,-0.024570158467533753,-0.024570158467533753,-0.024570158467533753,-0.024570158467533753,-0.024570158467533753,-0.024570158467533753,-0.024570158467533753,-0.024570158467533753,-0.024570158467533753,-0.024570158467533753,-0.024570158467533753,-0.024570158467533753,-0.024570158467533753,-0.024570158467533753,-0.024570158467533753,-0.024570158467533753,-0.024570158467533753,-0.024570158467533753,-0.024570158467533753,-0.024570158467533753,-0.024570158467533753,-0.024570158467533753,-0.04799145764546459,-0.03807414549589098,-0.011786001957814415,0.04087900788377525,0.060600583867923934,0.0637730738635554,0.06348702008174016,0.062484415082777016,0.0615797128378501,0.060982169933919306,0.06116517860897299,0.0624240752366953,0.06346529474784868,0.06509487863947035,0.06586052720107358,0.06739155006702002,0.06802427782898583,0.06898443009709776,0.07034796660767599,0.0715235832684875,0.07376698791453452,0.07630343910730358,0.08016703033970433,0.08387804589709251,0.08682209001164486,0.08931094795628702,0.09045843825694165,0.09093335881594576,0.09059298431135257,0.0907646502213554,0.09119922025756856,0.0914267579494951,0.0907769378830359,0.091269343566798,0.09275867687305671,0.09484626781075708,0.09561736339108368,0.09533566309751089,0.09459275071452736,0.09337556886850569,0.09171604418005369,0.09012851321967805,0.08949080037417109,0.08957336375818273,0.08944815612249522,0.08908171524918451,0.08885214188123802,0.08929582275175689,0.08954759687268218,0.08955739911261998,0.08848058634695212,0.08742440454136924,0.08631066552352622,0.08558583515238621,0.08491763872195661,0.08423090278094415,0.08377894236441209,0.08358417196398273,0.0835369570565157,0.08349788683770307,0.08326642710257583,0.08303906509695715,0.08293254157077816,0.08300389748958814,0.08328640589206707,0.08354164643705678,0.08363305668378362,0.08367393807578967,0.08367536087269035,0.08374910321278528,0.08341795073953179,0.08321486100377841,0.08220514208882364,0.0796369009394634,0.07357119260602514,0.06536179089164576,0.05799160792612193,0.05328788426270077,0.05106296818097239,0.049827223264039856,0.04930250422593469,0.04948384930181769,0.04932001598086226,0.04845363196603441,0.04681995561022932,0.0448385033725888,0.04355085149524988,0.04228463326500999,0.04128682437430898,0.04057366160929206,0.0405996397391451,0.041586216976117044,0.042863959395602835
-0.024570158467533753,-0.024570158467533753,-0.024570158467533753,-0.024570158467533753,-0.024570158467533753,-0.024570158467533753,-0.024570158467533753,-0.024570158467533753,-0.024570158467533753,-0.024570158467533753,-0.024570158467533753,-0.024570158467533753,-0.024570158467533753,-0.024570158467533753,-0.024570158467533753,-0.024570158467533753,-0.024570158467533753,-0.024570158467533753,-0.024570158467533753,-0.024570158467533753,-0.024570158467533753,-0.024570158467533753,-0.024570158467533753,-0.024570158467533753,-0.024570158467533753,-0.024570158467533753,-0.024570158467533753,-0.024570158467533753,-0.024570158467533753,-0.024570158467533753,-0.024570158467533753,-0.024570158467533753,-0.024570158467533753,-0.024570158467533753,-0.024570158467533753,-0.024570158467533753,-0.024570158467533753,-0.024570158467533753,-0.024570158467533753,-0.024570158467533753,-0.024570158467533753,-0.024570158467533753,-0.024570158467533753,-0.024570158467533753,-0.024570158467533753,-0.024570158467533753,-0.04323616737078964,-0.061294263958561086,-0.0394145433465816,0.008335628114266386,0.05809990222435425,0.06835369512634017,0.0712739715926767,0.07093458682026532,0.06995280397996143,0.06889648935025261,0.06859235560080625,0.06905761981330066,0.06974412957432526,0.07095056635492428,0.07139846748985329,0.07228512006727769,0.07292157587422003,0.07410555533142915,0.07501209625181629,0.07561435914124023,0.07711730770856436,0.07926515618645534,0.08258958654260996,0.08572406024543512,0.08787857686021253,0.08902510633206002,0.08942431895102215,0.0894261101579083,0.08940687999184818,0.08972782012230032,0.09060181741607351,0.0912750455520725,0.09089244123435025,0.0911835309916205,0.09208661642049372,0.09357758281691057,0.09409307307564058,0.09379156023776954,0.0935158999339766,0.09304623361492363,0.0920056148093815,0.09041041047458802,0.08928199714309301,0.0889523049297343,0.08891391562036874,0.08873177525177478,0.08842104895415809,0.08842523899477303,0.08872867467028413,0.08901610637244375,0.08847825983530228,0.08727343777754577,0.08595617365466378,0.08484730172919618,0.08413034940035033,0.08349469349721748,0.08305209477707802,0.08280434308205427,0.08283223481572402,0.08302763873494334,0.08315955560069861,0.08308710066209651,0.08300824222739012,0.08312057138751752,0.08347321007402757,0.08385760596138983,0.08398066958235241,0.08392727630414148,0.08390416693677233,0.08389358637310114,0.08359507422130748,0.08297145772293195,0.08127188011240552,0.0781726783635265,0.07197493225063169,0.06438079328526049,0.057738743435771955,0.05386234848623873,0.05204884947959737,0.05099931679765781,0.050604252419277546,0.050646686213583,0.050120653885242436,0.04897806872375108,0.04744597126556558,0.04575561926378647,0.0446432330702867,0.0436591684676002,0.043175224234998415,0.042651685490882156,0.04275537583632827,0.04332974853797767,0.04417985722239821
-0.024570158467533753,-0.024570158467533753,-0.024570158467533753,-0.024570158467533753,-0.024570158467533753,-0.024570158467533753,-0.024570158467533753,-0.024570158467533753,-0.024570158467533753,-0.024570158467533753,-0.024570158467533753,-0.024570158467533753,-0.024570158467533753,-0.024570158467533753,-0.024570158467533753,-0.024570158467533753,-0.024570158467533753,-0.024570158467533753,-0.024570158467533753,-0.024570158467533753,-0.024570158467533753,-0.024570158467533753,-0.024570158467533753,-0.024570158467533753,-0.024570158467533753,-0.024570158467533753,-0.024570158467533753,-0.024570158467533753,-0.024570158467533753,-0.024570158467533753,-0.024570158467533753,-0.024570158467533753,-0.024570158467533753,-0.024570158467533753,-0.024570158467533753,-0.024570158467533753,-0.024570158467533753,-0.024570158467533753,-0.024570158467533753,-0.024570158467533753,-0.024570158467533753,-0.024570158467533753,-0.024570158467533753,-0.024570158467533753,-0.024570158467533753,-0.024570158467533753,-0.024570158467533753,-0.04819510584329493,-0.047966761148125814,-0.02343376617455087,0.03098950576431417,0.06278620998635763,0.07031384264982626,0.07131916292030481,0.07088880904036253,0.07051765647721753,0.07044220718518292,0.07058160438927116,0.07059151697396793,0.07097364515588526,0.07140304438965042,0.07223362722532174,0.0737138134055572,0.0752091952733763,0.0761048745296692,0.07650873206187535,0.07830108892523138,0.08142929810073607,0.0845616733045777,0.08706424682960498,0.08849778821433962,0.08930613513139068,0.08943984740264377,0.08914800138485965,0.08934292999273466,0.08963092396783086,0.09050352008635994,0.09088706861803178,0.09025773765234042,0.08974613338973338,0.08975386759470029,0.09088055319683712,0.09170283608570998,0.09209707732273094,0.09249973213881765,0.09253159561118009,0.09186565312041235,0.09073449256145844,0.08976137205608893,0.08953561713826648,0.08936605579978545,0.08923083614517038,0.08867800397219083,0.08850882112288931,0.08877031432797541,0.0894620321080787,0.08940733737197262,0.08856701403220194,0.08750001508137559,0.08659361189774673,0.08607217810630542,0.08543974860604837,0.08490104515633805,0.08425850347752095,0.08393149745594482,0.08375393161294925,0.08377735692304447,0.08363187211936604,0.08342934394354154,0.08335756669551496,0.08352221739995813,0.08373049757024545,0.08383876723160386,0.0838500643972009,0.08384401092987492,0.08374862083807964,0.08334084357897664,0.08275906299373995,0.08131852054235793,0.0783615102635884,0.0720831932501907,0.0643394434091152,0.057880115550787856,0.05439956276756822,0.052490391463869426,0.050886549355238016,0.04987944591434566,0.04965800060805524,0.04910893722002036,0.047704519875894365,0.04567118164358265,0.04384566824598579,0.04291149491754604,0.04259976605807009,0.04257080474087245,0.04260614871891475,0.0431620772080641,0.043863903505803235,0.044809329153405915
-0.024570158467533753,-0.024570158467533753,-0.024570158467533753,-0.024570158467533753,-0.024570158467533753,-0.024570158467533753,-0.024570158467533753,-0.024570158467533753,-0.024570158467533753,-0.024570158467533753,-0.024570158467533753,-0.024570158467533753,-0.024570158467533753,-0.024570158467533753,-0.024570158467533753,-0.024570158467533753,-0.024570158467533753,-0.024570158467533753,-0.024570158467533753,-0.024570158467533753,-0.024570158467533753,-0.024570158467533753,-0.024570158467533753,-0.024570158467533753,-0.024570158467533753,-0.024570158467533753,-0.024570158467533753,-0.024570158467533753,-0.024570158467533753,-0.024570158467533753,-0.024570158467533753,-0.024570158467533753,-0.024570158467533753,-0.024570158467533753,-0.024570158467533753,-0.024570158467533753,-0.024570158467533753,-0.024570158467533753,-0.024570158467533753,-0.024570158467533753,-0.024570158467533753,-0.024570158467533753,-0.024570158467533753,-0.024570158467533753,-0.024570158467533753,-0.024570158467533753,-0.024570158467533753,-0.0465151570207963,-0.053570813437562606,-0.03752659346562252,0.016350227824802624,0.05787998948369135,0.07640728582028233,0.07898140583702572,0.07880655321982714,0.07840141766815588,0.07776270101055108,0.07701777572140134,0.07625533902355548,0.07571947112223745,0.07559926200421743,0.07585279010634076,0.07706829153502975,0.07842763508094477,0.07931430710318557,0.07980405240932577,0.08096812664075431,0.08306942872800617,0.0852425082665136,0.08748638649591403,0.08890380628211889,0.08925380418213687,0.08861093090300438,0.08841210211804634,0.0892643848743084,0.09005993695341516,0.09111435921207474,0.09158723069768174,0.09118021329668083,0.09001503595516151,0.08911533285197361,0.08969429791816966,0.09071746942501699,0.0917324776319299,0.09237427582536181,0.09242234885445656,0.09159444662665457,0.09042800570712121,0.08938132135238264,0.08889653268221231,0.08864263203970692,0.08846462909692963,0.08813922928710433,0.08803615073532105,0.088351162316517,0.08894806393087247,0.08891527722619443,0.08820988840351733,0.08721011230991862,0.08626428481980356,0.08544111654368977,0.0846020600468659,0.08385476230057025,0.0831430879791577,0.0828625395211163,0.08293615277041064,0.08333564155321556,0.08347728128929466,0.08348914941375969,0.0835663992899999,0.08374273535278634,0.08388924851701297,0.08374956917183304,0.0835336391628182,0.08345520210177156,0.0834796391573193,0.08328045881384805,0.08234617928815144,0.08023460341170863,0.07648016463603999,0.07012561315966385,0.0627918261827704,0.05709715039381225,0.05430722158756677,0.05286137475989519,0.05139529480835674,0.050118959284087106,0.04965502203780339,0.04926665455175002,0.04822366198700266,0.046825149224846076,0.04522450558082559,0.04438796042209685,0.044081067603785176,0.044236867392786844,0.04437304458304293,0.04471708784005405,0.04522002296128611,0.04576630642703251
-0.024570158467533753,-0.024570158467533753,-0.024570158467533753,-0.024570158467533753,-0.024570158467533753,-0.024570158467533753,-0.024570158467533753,-0.024570158467533753,-0.024570158467533753,-0.024570158467533753,-0.024570158467533753,-0.024570158467533753,-0.024570158467533753,-0.024570158467533753,-0.024570158467533753,-0.024570158467533753,-0.024570158467533753,-0.024570158467533753,-0.024570158467533753,-0.024570158467533753,-0.024570158467533753,-0.024570158467533753,-0.024570158467533753,-0.024570158467533753,-0.024570158467533753,-0.024570158467533753,-0.024570158467533753,-0.024570158467533753,-0.024570158467533753,-0.024570158467533753,-0.024570158467533753,-0.024570158467533753,-0.024570158467533753,-0.024570158467533753,-0.024570158467533753,-0.024570158467533753,-0.024570158467533753,-0.024570158467533753,-0.024570158467533753,-0.024570158467533753,-0.024570158467533753,-0.024570158467533753,-0.024570158467533753,-0.024570158467533753,-0.024570158467533753,-0.024570158467533753,-0.024570158467533753,-0.024570158467533753,-0.036312032255831295,-0.02970357783825308,-0.00646937180146371,0.03920284054929595,0.0671002120411437,0.07853835284359593,0.07917852852820677,0.0793025193914587,0.07883527788576826,0.07786537035257038,0.07682358391145543,0.0762093706143362,0.07623898783286111,0.07621764950774823,0.07659268992620501,0.07721917928919099,0.0780316528237926,0.07906631025325105,0.08050990539495279,0.0822588021640609,0.08370204498251954,0.08592122478493208,0.08823009450802123,0.09003951853442463,0.09007763867146532,0.08983523339578581,0.09030190830912371,0.0908543730765656,0.09161032156426335,0.09167714567987072,0.0910421158227249,0.08959053124807118,0.08830321956190688,0.0884033960223654,0.08958364966428266,0.09112160291154543,0.09216287841725851,0.09218517327700164,0.09124699016254403,0.09015361505388159,0.08915390398749368,0.08893316356133962,0.08895632723561311,0.08904199140268249,0.08869293331696466,0.08860457869735533,0.08883051757670718,0.08945450490872481,0.0896012429843109,0.08927548582470932,0.08856769265405869,0.08786370838034457,0.0872382385334842,0.08644540937521211,0.08550564748391655,0.08439095946946165,0.08356590686687597,0.08317838802872073,0.08337357985685884,0.08364580715185015,0.08368396682834933,0.08374144549431911,0.08383038991097896,0.08380236301039637,0.083490998311798,0.08317847912556983,0.08308630431485002,0.083020829878844,0.08261289759669808,0.08164735246350165,0.07962059246053957,0.07573455231670843,0.06925585030097371,0.06141068578902267,0.05523174164490559,0.05201378195997831,0.050548205028055807,0.04949411528648852,0.04825896091113381,0.04764091437584478,0.046883089889220624,0.046160758373744996,0.0453972651286328,0.04458848857861548,0.043899145074981216,0.043742984634900416,0.04400900705882868,0.04457605644750148,0.04486935150837966,0.045522618153726706,0.04593491238479838
-0.024570158467533753,-0.024570158467533753,-0.024570158467533753,-0.024570158467533753,-0.024570158467533753,-0.024570158467533753,-0.024570158467533753,-0.024570158467533753,-0.024570158467533753,-0.024570158467533753,-0.024570158467533753,-0.024570158467533753,-0.024570158467533753,-0.024570158467533753,-0.024570158467533753,-0.024570158467533753,-0.024570158467533753,-0.024570158467533753,-0.024570158467533753,-0.024570158467533753,-0.024570158467533753,-0.024570158467533753,-0.024570158467533753,-0.024570158467533753,-0.024570158467533753,-0.024570158467533753,-0.024570158467533753,-0.024570158467533753,-0.024570158467533753,-0.024570158467533753,-0.024570158467533753,-0.024570158467533753,-0.024570158467533753,-0.024570158467533753,-0.024570158467533753,-0.024570158467533753,-0.024570158467533753,-0.024570158467533753,-0.024570158467533753,-0.024570158467533753,-0.024570158467533753,-0.024570158467533753,-0.024570158467533753,-0.024570158467533753,-0.024570158467533753,-0.024570158467533753,-0.024570158467533753,-0.024570158467533753,-0.024570158467533753,-0.02429859605540636,-0.011010390489393219,0.015123652315358728,0.051168329473626865,0.07532264999951883,0.08632145540757735,0.08727390585343366,0.08641050649584292,0.08538267415187625,0.08392929253482345,0.0826207887022308,0.08130629197953389,0.07990132634911692,0.07916039034645209,0.07927364744925974,0.08005824631213135,0.08100777019542726,0.08189137329207181,0.08266805320414386,0.0831181482572903,0.08409347728288523,0.0855594636924916,0.08752866867051658,0.08873327564788414,0.08958075573038798,0.09025783043345728,0.09055813360968272,0.09061856599011144,0.09044797629755942,0.09003387620459613,0.08912810493974413,0.08821650320468387,0.08833329065268834,0.08947239322060611,0.09065252282479215,0.09143587040134449,0.0915280772187184,0.09095904260669564,0.08964708234162425,0.08823115782864636,0.08760316751791224,0.08782105548715378,0.08814193926243918,0.08802096668243964,0.08801234851234427,0.08827858710755349,0.08885311492272707,0.0890414081111595,0.08883609917970602,0.08828452697271386,0.08755308279117333,0.08676232853743376,0.08591084752615964,0.0851732619017588,0.08468567486882064,0.08415640197482793,0.08381528357613426,0.08357686485429837,0.08375924634235773,0.08388285413619082,0.08399422478089329,0.08412178925087256,0.08408883978876161,0.08369130149798501,0.08321695531501501,0.0828823717433099,0.08279204806806838,0.08232835195803201,0.08122406733737589,0.07867244157017544,0.07414005270194353,0.06728219844347332,0.05971855783709766,0.05380426603173557,0.05087986560865881,0.04970652001474115,0.049245891609861044,0.048448988493920146,0.04784294453751761,0.04714996448485765,0.046737533116701854,0.04655979290487245,0.04615257760083562,0.04554785131842916,0.04517116986286826,0.04508337324255741,0.045187971024047945,0.045114640366674,0.04552124139672359,0.04555633487127253
-0.024570158467533753,-0.024570158467533753,-0.024570158467533753,-0.024570158467533753,-0.024570158467533753,-0.024570158467533753,-0.024570158467533753,-0.024570158467533753,-0.024570158467533753,-0.024570158467533753,-0.024570158467533753,-0.024570158467533753,-0.024570158467533753,-0.024570158467533753,-0.024570158467533753,-0.024570158467533753,-0.024570158467533753,-0.024570158467533753,-0.024570158467533753,-0.024570158467533753,-0.024570158467533753,-0.024570158467533753,-0.024570158467533753,-0.024570158467533753,-0.024570158467533753,-0.024570158467533753,-0.024570158467533753,-0.024570158467533753,-0.024570158467533753,-0.024570158467533753,-0.024570158467533753,-0.024570158467533753,-0.024570158467533753,-0.024570158467533753,-0.024570158467533753,-0.024570158467533753,-0.024570158467533753,-0.024570158467533753,-0.024570158467533753,-0.024570158467533753,-0.024570158467533753,-0.024570158467533753,-0.024570158467533753,-0.024570158467533753,-0.024570158467533753,-0.024570158467533753,-0.024570158467533753,-0.024570158467533753,-0.024570158467533753,-0.024570158467533753,-0.022015657085900076,-0.008257604796282982,0.019294352918978967,0.05376363018445317,0.07817225574045047,0.08935657780108502,0.09064446402767445,0.09037245246206825,0.08886251397084159,0.08705589899568808,0.08501018656966448,0.08320908843837033,0.08155301383731535,0.08057279294122612,0.08042977199940383,0.08075193776571082,0.08125337773891873,0.08172863977586499,0.08253015805331614,0.08383089171264327,0.08525127020918907,0.08685405506719049,0.08788683106812195,0.0886540023354957,0.08908766574598093,0.08920735044667019,0.08897260038815066,0.08883857925197472,0.08859158821392984,0.08803349583469078,0.08740860348450301,0.08750363390563869,0.0887274692029331,0.08986199641213968,0.09094909226607809,0.09117954655455907,0.09108261623677259,0.09018518931304464,0.08921672010629007,0.08872849881686523,0.0887460073641919,0.08890484967829151,0.08862094826618368,0.08849047460067289,0.08873460024043117,0.08938264030138848,0.08978001386556,0.08951356910351714,0.08881493036102552,0.08807713464460748,0.0876062709261972,0.08720838431797921,0.08665260816167908,0.08611705808016608,0.08515739283046854,0.08433990820677376,0.08369327436283179,0.08377733560809948,0.0837883939228653,0.08373281474876255,0.08365505334072623,0.08369524699951826,0.0834908560741571,0.08311920111345313,0.08263565892012685,0.08217391354407673,0.08154470320951046,0.08047988495768749,0.07816419918030784,0.07363250390782959,0.06650785100628856,0.05877367956231612,0.05277374909631678,0.05000689993323531,0.049258657303112297,0.049157584053600586,0.048465843185251524,0.0475147390707235,0.0465544389716825,0.046191699648553144,0.04615760310059068,0.046145545198608987,0.04570959250648677,0.04539310026144342,0.045092071897675064,0.04519442020522062,0.04524325641586506,0.04587831523253696,0.045937644207293835
-0.024570158467533753,-0.024570158467533753,-0.024570158467533753,-0.024570158467533753,-0.024570158467533753,-0.024570158467533753,-0.024570158467533753,-0.024570158467533753,-0.024570158467533753,-0.024570158467533753,-0.024570158467533753,-0.024570158467533753,-0.024570158467533753,-0.024570158467533753,-0.024570158467533753,-0.024570158467533753,-0.024570158467533753,-0.024570158467533753,-0.024570158467533753,-0.024570158467533753,-0.024570158467533753,-0.024570158467533753,-0.024570158467533753,-0.024570158467533753,-0.024570158467533753,-0.024570158467533753,-0.024570158467533753,-0.024570158467533753,-0.024570158467533753,-0.024570158467533753,-0.024570158467533753,-0.024570158467533753,-0.024570158467533753,-0.024570158467533753,-0.024570158467533753,-0.024570158467533753,-0.024570158467533753,-0.024570158467533753,-0.024570158467533753,-0.024570158467533753,-0.024570158467533753,-0.024570158467533753,-0.024570158467533753,-0.024570158467533753,-0.024570158467533753,-0.024570158467533753,-0.024570158467533753,-0.024570158467533753,-0.024570158467533753,-0.024570158467533753,-0.024570158467533753,-0.02177407525070796,-0.00577599827415492,0.018543502023383476,0.05525329456107394,0.08189570745562386,0.09929443021704552,0.10045397213790182,0.09730255412429008,0.09439776341573936,0.09191061008121003,0.09003792199615412,0.08814532672185034,0.08634483298160105,0.0851553478328615,0.08437604061931615,0.08412060302530858,0.08387400067319303,0.0841567324824512,0.08476763332159755,0.08540310306027304,0.0861633900231632,0.08671871565227209,0.08732095263537387,0.08756023925251041,0.08772474501600652,0.08762888224941608,0.08773371972818515,0.08767788100027994,0.08757871475348694,0.08731840966398165,0.08743257901041669,0.0882480759407457,0.08903439529061691,0.08999201450502314,0.09021546630742047,0.0900999060782752,0.08937901510531598,0.08856354992465541,0.08789037095600485,0.0878320871903013,0.08805181340957594,0.08820057087303979,0.08798285181688821,0.08809754052571525,0.08859617996055698,0.08908740060998294,0.08915463049056827,0.08882901597860808,0.08819633210090361,0.08756426988873142,0.087159713251282,0.08684467073484047,0.08663385052726078,0.08592702810103571,0.08514395890243213,0.0843754794480596,0.08406626343436106,0.08394286818473883,0.08376138569420162,0.08361137607910636,0.08357944089228717,0.08335099015826515,0.0830433335638283,0.08262161787253323,0.08228029491514699,0.08177072607538166,0.08060259492324176,0.07794152925811595,0.07264295315530303,0.0647058987068122,0.057084863704503205,0.051865570121987795,0.0503120393118619,0.04998170317354815,0.04991968809011176,0.04903732227038175,0.0482805637984618,0.047935139652832796,0.04781063271722712,0.04768727829325279,0.04730596090033781,0.04699022921810646,0.04659598741699494,0.046119861313533274,0.045756932949038084,0.045642635984562835,0.045918533122657895,0.04587344703628829
-0.024570158467533753,-0.024570158467533753,-0.024570158467533753,-0.024570158467533753,-0.024570158467533753,-0.024570158467533753,-0.024570158467533753,-0.024570158467533753,-0.024570158467533753,-0.024570158467533753,-0.024570158467533753,-0.024570158467533753,-0.024570158467533753,-0.024570158467533753,-0.024570158467533753,-0.024570158467533753,-0.024570158467533753,-0.024570158467533753,-0.024570158467533753,-0.024570158467533753,-0.024570158467533753,-0.024570158467533753,-0.024570158467533753,-0.024570158467533753,-0.024570158467533753,-0.024570158467533753,-0.024570158467533753,-0.024570158467533753,-0.024570158467533753,-0.024570158467533753,-0.024570158467533753,-0.024570158467533753,-0.024570158467533753,-0.024570158467533753,-0.024570158467533753,-0.024570158467533753,-0.024570158467533753,-0.024570158467533753,-0.024570158467533753,-0.024570158467533753,-0.024570158467533753,-0.024570158467533753,-0.024570158467533753,-0.024570158467533753,-0.024570158467533753,-0.024570158467533753,-0.024570158467533753,-0.024570158467533753,-0.024570158467533753,-0.024570158467533753,-0.024570158467533753,-0.024570158467533753,-0.020800442252585403,-0.009796970986111984,0.012743653947405908,0.04825765299579696,0.08109303486543327,0.10026031391241022,0.10100909527421272,0.09694895880891172,0.09488928459182551,0.09435672929726364,0.09340471170720678,0.09208861656849218,0.09045035966061639,0.08890192336720439,0.08761419983805807,0.08637316969647132,0.08574731859478457,0.08563272075482062,0.08598077996772618,0.08617625746743925,0.08610403591365375,0.08606561857584885,0.08605658779969254,0.08626461667152874,0.08629452003240436,0.08671128142358588,0.08694314590259102,0.08732337327852886,0.08737580802992059,0.08739682502905631,0.08793332584822314,0.08892039973484799,0.09014270284441427,0.09051789763987048,0.09031506488530491,0.0900608827508697,0.08974722714533419,0.08935770897047385,0.08909674319873526,0.08895479111550102,0.08891222670994037,0.08864866906655855,0.08887037822805482,0.08921962390573741,0.08950998080891659,0.08928762166822042,0.08876010124054606,0.08821485276571076,0.08773503202256609,0.08742315407472362,0.08685673051533001,0.0861705885593583,0.08525743255946851,0.0842891619196482,0.08380746378503014,0.08360968696314196,0.08356699424729752,0.08336681742925428,0.08318553073398782,0.08324904976304083,0.0831150089501083,0.08265798631326995,0.0822029216003244,0.08163486917030272,0.08118980914551321,0.07989575482164792,0.07721303708025486,0.0717524071105686,0.06369369916407537,0.05609607451241162,0.051417370393236336,0.049969349745327775,0.04984251089283634,0.04960700921699876,0.04887070758611608,0.048173710354833074,0.04774938884008538,0.04765266607914494,0.04736360037192851,0.0468807474433977,0.046335895379948255,0.045912039016977636,0.04565451674445474,0.045661637786248745,0.04571126083396845,0.04576056902663086,0.045739169754812396
-0.024570158467533753,-0.024570158467533753,-0.024570158467533753,-0.024570158467533753,-0.024570158467533753,-0.024570158467533753,-0.024570158467533753,-0.024570158467533753,-0.024570158467533753,-0.024570158467533753,-0.024570158467533753,-0.024570158467533753,-0.024570158467533753,-0.024570158467533753,-0.024570158467533753,-0.024570158467533753,-0.024570158467533753,-0.024570158467533753,-0.024570158467533753,-0.024570158467533753,-0.024570158467533753,-0.024570158467533753,-0.024570158467533753,-0.024570158467533753,-0.024570158467533753,-0.024570158467533753,-0.024570158467533753,-0.024570158467533753,-0.024570158467533753,-0.024570158467533753,-0.024570158467533753,-0.024570158467533753,-0.024570158467533753,-0.024570158467533753,-0.024570158467533753,-0.024570158467533753,-0.024570158467533753,-0.024570158467533753,-0.024570158467533753,-0.024570158467533753,-0.024570158467533753,-0.024570158467533753,-0.024570158467533753,-0.024570158467533753,-0.024570158467533753,-0.024570158467533753,-0.024570158467533753,-0.024570158467533753,-0.024570158467533753,-0.024570158467533753,-0.024570158467533753,-0.024570158467533753,-0.024570158467533753,-0.02554574127365166,-0.016314008379520833,0.00934938010274355,0.03969358085333085,0.06905207559035144,0.08423805046889778,0.09544822842701207,0.09814452185695367,0.09870389426701082,0.0989076690951141,0.09818403791921602,0.09688686985194876,0.09612201027264437,0.0952006524457488,0.09375719280201944,0.09215488446638154,0.09074438479534547,0.08982711327883029,0.08874264555526495,0.08763451280279803,0.08683173501378266,0.08658591445598665,0.08680358494566293,0.08690371781632097,0.08706893658507525,0.08694522454254096,0.0873883170293947,0.08749462626576808,0.08752382126460301,0.08762247271545628,0.08822385475188091,0.08908473455933505,0.08943678661303503,0.08915601548634242,0.08878939086594204,0.08841697070868697,0.08809928901311857,0.08809962313690337,0.08812881609439333,0.08823624046040847,0.08802365770101479,0.0881678609967733,0.08854012541663722,0.08889238858320035,0.08911844978672152,0.08919863213078916,0.08905593881247327,0.08861309751633187,0.08811580119522265,0.08753175466997672,0.08686171763655302,0.08590816119779737,0.08481235201169034,0.08422435004566263,0.08393404183193305,0.08393023182287052,0.08372649487082495,0.08344583630053129,0.08321168791282187,0.08290200555915536,0.08239817385549764,0.08203151403258294,0.08165164655210212,0.08129747075385056,0.07996041137397822,0.07685131529418272,0.07092976235987832,0.06301519645652218,0.05629791853994354,0.05260165886373985,0.051458799584164786,0.05068493082838674,0.049859179945551856,0.04911958210884201,0.0487597924443869,0.04858722030812241,0.04849223765535735,0.0480836589331903,0.04756142331811075,0.046902763255976594,0.04611160055339553,0.045647670103467104,0.04539126434035445,0.04553304552251396,0.04508070070245129,0.04458595290792797
-0.024570158467533753,-0.024570158467533753,-0.024570158467533753,-0.024570158467533753,-0.024570158467533753,-0.024570158467533753,-0.024570158467533753,-0.024570158467533753,-0.024570158467533753,-0.024570158467533753,-0.024570158467533753,-0.024570158467533753,-0.024570158467533753,-0.024570158467533753,-0.024570158467533753,-0.024570158467533753,-0.024570158467533753,-0.024570158467533753,-0.024570158467533753,-0.024570158467533753,-0.024570158467533753,-0.024570158467533753,-0.024570158467533753,-0.024570158467533753,-0.024570158467533753,-0.024570158467533753,-0.024570158467533753,-0.024570158467533753,-0.024570158467533753,-0.024570158467533753,-0.024570158467533753,-0.024570158467533753,-0.024570158467533753,-0.024570158467533753,-0.024570158467533753,-0.024570158467533753,-0.024570158467533753,-0.024570158467533753,-0.024570158467533753,-0.024570158467533753,-0.024570158467533753,-0.024570158467533753,-0.024570158467533753,-0.024570158467533753,-0.024570158467533753,-0.024570158467533753,-0.024570158467533753,-0.024570158467533753,-0.024570158467533753,-0.024570158467533753,-0.024570158467533753,-0.024570158467533753,-0.024570158467533753,-0.024570158467533753,-0.028263081861485174,-0.01826507412563236,-0.003930706935058752,0.01452588230691935,0.03922510223047494,0.0655862046097101,0.09231731962761995,0.09928473121725724,0.09938993888177548,0.09893259160943592,0.09782734811251592,0.09785487400827167,0.09727812469070016,0.09632760458115902,0.09499329898370336,0.09403691125135914,0.09341340848729612,0.0924243804150363,0.09084020828228778,0.08946046510074056,0.08837563352044946,0.08806148577797795,0.08759185023941113,0.08743341526278246,0.08723459453612582,0.08778837696947704,0.08791192485595786,0.08786655772247585,0.08800442895943729,0.08862306846703741,0.08923029284887046,0.08959602329245303,0.0897055511161313,0.08991713968092402,0.08968254104129317,0.08943113107546036,0.08921681439184903,0.08918951264488323,0.08913459843608301,0.08897963919787347,0.08903493364072068,0.08929530990724559,0.08938518196711191,0.08923896509479702,0.08895874721802385,0.08866729999305521,0.08823144871295881,0.08779243432196718,0.08713636600927994,0.08638295381846466,0.08509771626763768,0.08389176377009044,0.08324615965812245,0.083293195209323,0.08356416499595008,0.08351474088645895,0.08323884521340391,0.08296140787571936,0.08268520891541438,0.08208312128434322,0.08165154156357338,0.08104892075435274,0.0805519624263768,0.07915857226751616,0.07619447588387376,0.07057830566475987,0.06331525864906141,0.05723316944202234,0.05396084702000884,0.05264210627582787,0.05162145021624608,0.05022771929881099,0.04926377174398559,0.04866643566611155,0.04852129591444819,0.048458330177856085,0.04808844829486269,0.04738968976198193,0.046483462115132615,0.045453952190977975,0.04502867660121055,0.04500093823502146,0.04536178276390471,0.045331882364157174,0.045084797709483586
-0.024570158467533753,-0.024570158467533753,-0.024570158467533753,-0.024570158467533753,-0.024570158467533753,-0.024570158467533753,-0.024570158467533753,-0.024570158467533753,-0.024570158467533753,-0.024570158467533753,-0.024570158467533753,-0.024570158467533753,-0.024570158467533753,-0.024570158467533753,-0.024570158467533753,-0.024570158467533753,-0.024570158467533753,-0.024570158467533753,-0.024570158467533753,-0.024570158467533753,-0.024570158467533753,-0.024570158467533753,-0.024570158467533753,-0.024570158467533753,-0.024570158467533753,-0.024570158467533753,-0.024570158467533753,-0.024570158467533753,-0.024570158467533753,-0.024570158467533753,-0.024570158467533753,-0.024570158467533753,-0.024570158467533753,-0.024570158467533753,-0.024570158467533753,-0.024570158467533753,-0.024570158467533753,-0.024570158467533753,-0.024570158467533753,-0.024570158467533753,-0.024570158467533753,-0.024570158467533753,-0.024570158467533753,-0.024570158467533753,-0.024570158467533753,-0.024570158467533753,-0.024570158467533753,-0.024570158467533753,-0.024570158467533753,-0.024570158467533753,-0.024570158467533753,-0.024570158467533753,-0.024570158467533753,-0.024570158467533753,-0.024570158467533753,-0.024570158467533753,-0.025389365009646635,-0.024664093338719467,0.0393697290644066,0.07519461917877615,0.11668479551369337,0.09507032380349753,0.10161383259672879,0.10101565952666108,0.09973881288169217,0.09947355900053803,0.09888682762303239,0.09843857515380364,0.09797256605125691,0.09770309479805346,0.09721325074331917,0.09625127128108386,0.09530361584797066,0.09454217891561542,0.09380804592516195,0.09303451924282476,0.09196046447708948,0.09084159740828207,0.0894525689336629,0.08881287811114717,0.08832972201893936,0.08812073163311022,0.08811000415861882,0.08821314692516116,0.08848774977878322,0.0888787878762866,0.08928826973436385,0.08973644577547919,0.08957703954366658,0.08932272650477725,0.08895774004230836,0.088854984958174,0.08884389529352107,0.0887837079583433,0.08871641770628112,0.08903460490461275,0.08923141036719823,0.08940806889887275,0.0893448485266304,0.08910724986476586,0.08875072308593841,0.08840696166689715,0.08781097219818698,0.08698624733814198,0.0855644818482104,0.08437889338141741,0.08368601715194758,0.08365429629721828,0.08389396675728197,0.0838725618562517,0.0834870879846716,0.08303574707463077,0.08267763856880687,0.08239028470475611,0.082106997682568,0.0815838888827388,0.08079428026020377,0.07917253529971657,0.07599710869002765,0.0703277002210793,0.06346181920612305,0.05815307600820628,0.05534336854013493,0.05411461902452349,0.05257853135111213,0.050912054524150235,0.04997051393180296,0.049353901653869235,0.04925495147939496,0.04914360923067107,0.04931727462299282,0.04904868452969988,0.048313492054717626,0.046836332102477805,0.045603227038801014,0.0449335677430713,0.04496685241920487,0.04512531074503223,0.0447436480544183
-0.024570158467533753,-0.024570158467533753,-0.024570158467533753,-0.024570158467533753,-0.024570158467533753,-0.024570158467533753,-0.024570158467533753,-0.024570158467533753,-0.024570158467533753,-0.024570158467533753,-0.024570158467533753,-0.024570158467533753,-0.024570158467533753,-0.024570158467533753,-0.024570158467533753,-0.024570158467533753,-0.024570158467533753,-0.024570158467533753,-0.024570158467533753,-0.024570158467533753,-0.024570158467533753,-0.024570158467533753,-0.024570158467533753,-0.024570158467533753,-0.024570158467533753,-0.024570158467533753,-0.024570158467533753,-0.024570158467533753,-0.024570158467533753,-0.024570158467533753,-0.024570158467533753,-0.024570158467533753,-0.024570158467533753,-0.024570158467533753,-0.024570158467533753,-0.024570158467533753,-0.024570158467533753,-0.024570158467533753,-0.024570158467533753,-0.024570158467533753,-0.024570158467533753,-0.024570158467533753,-0.024570158467533753,-0.024570158467533753,-0.024570158467533753,-0.024570158467533753,-0.024570158467533753,-0.024570158467533753,-0.024570158467533753,-0.024570158467533753,-0.024570158467533753,-0.024570158467533753,-0.024570158467533753,-0.024570158467533753,-0.024570158467533753,-0.024570158467533753,-0.024570158467533753,-0.03422914902359446,0.01595081119563203,0.08009059219724476,0.12013567848579311,0.10879948348542264,0.08477390785470508,0.0948380223315459,0.09632463408568552,0.09629276829320864,0.0958559556492535,0.0955159073568348,0.09532182916188073,0.09533735207530208,0.09539189978515028,0.09558434028552645,0.09592583146228276,0.09609366170822278,0.09603612544130695,0.09553466327144351,0.09459108799222622,0.09350589146113815,0.09250487412678023,0.09195444031090334,0.0914283966302976,0.09084653244639516,0.09069563996237442,0.09069556006904875,0.09078009162167386,0.09081185825636776,0.09085117041621323,0.09118227710705522,0.09100609751101696,0.09080835438018305,0.09033444814079755,0.09022980502236688,0.09014097320814324,0.08993186646207667,0.08965328480029726,0.08949714289069591,0.08958989907929268,0.08961268681775163,0.08954891069121562,0.08917253064504828,0.08864898867415057,0.08814149927888495,0.08741027348068768,0.08655712125582359,0.08542370111412094,0.08439334001393574,0.08369143552993209,0.0835210530851087,0.08363519534127614,0.08357721503880075,0.08326596435266904,0.08296724740054909,0.08263639336494706,0.08232392271626261,0.08196054392079202,0.0813552816908322,0.0803863239171978,0.07856987558350542,0.07519866792578911,0.06956022315467186,0.06286941949548291,0.05787947035016158,0.05549392240643659,0.054529912619685185,0.053060543261066136,0.051230985925396134,0.05019990080468434,0.04950738072217464,0.04928496950683841,0.04890242299936077,0.049080315435181654,0.048842594986421975,0.04828415473226571,0.04698735529253833,0.04583013798141735,0.045221693957753675,0.04537051419479838,0.045567861204245705,0.045215371152583644
-0.024570158467533753,-0.024570158467533753,-0.024570158467533753,-0.024570158467533753,-0.024570158467533753,-0.024570158467533753,-0.024570158467533753,-0.024570158467533753,-0.024570158467533753,-0.024570158467533753,-0.024570158467533753,-0.024570158467533753,-0.024570158467533753,-0.024570158467533753,-0.024570158467533753,-0.024570158467533753,-0.024570158467533753,-0.024570158467533753,-0.024570158467533753,-0.024570158467533753,-0.024570158467533753,-0.024570158467533753,-0.024570158467533753,-0.024570158467533753,-0.024570158467533753,-0.024570158467533753,-0.024570158467533753,-0.024570158467533753,-0.024570158467533753,-0.024570158467533753,-0.024570158467533753,-0.024570158467533753,-0.024570158467533753,-0.024570158467533753,-0.024570158467533753,-0.024570158467533753,-0.024570158467533753,-0.024570158467533753,-0.024570158467533753,-0.024570158467533753,-0.024570158467533753,-0.024570158467533753,-0.024570158467533753,-0.024570158467533753,-0.024570158467533753,-0.024570158467533753,-0.024570158467533753,-0.024570158467533753,-0.024570158467533753,-0.024570158467533753,-0.024570158467533753,-0.024570158467533753,-0.024570158467533753,-0.024570158467533753,-0.024570158467533753,-0.024570158467533753,-0.024570158467533753,-0.024570158467533753,0.01815985824590033,0.06867293751376612,0.06254369345134424,0.052060544575472115,0.03996519696542562,0.08583989604461598,0.09398411012781158,0.09567833970866228,0.09620657158952067,0.09605387789110074,0.09597112279208814,0.09556306814883464,0.09547062822636872,0.09563888512529357,0.09613992868624292,0.09639113058001002,0.09668713333758866,0.09662485962694475,0.09645857559575398,0.09617864353754019,0.09635314464715139,0.0962607239665919,0.09602672013060351,0.09547398097626451,0.09503672661647329,0.09447593532098122,0.09389550763314333,0.09356534204173375,0.09318986420397349,0.09290619090460413,0.09236709652288516,0.09204936192204102,0.0914895947771831,0.0911768940954532,0.09102358654678051,0.09079265116187789,0.0904837363809223,0.09003011420966187,0.09010586843693397,0.09015720910000335,0.09025963873330249,0.08999325744095353,0.08958268917377571,0.08891008675161473,0.08799773584251894,0.08707007697513167,0.08617851701829533,0.0851920674645843,0.084349613126939,0.08386637298830317,0.08382980001846486,0.08366853938376577,0.08326633519027196,0.08295476909124698,0.08271696181900146,0.08262453619159235,0.08224780279619562,0.08159437732430692,0.08056215796802056,0.07865649109986408,0.07523564072827241,0.06959254518542317,0.0631958931568948,0.058496145620293656,0.0561990031683811,0.055137646550044196,0.05363468136714294,0.052194398327826075,0.05170725576003166,0.05105729860368291,0.05037799804696977,0.049358836408701326,0.04931608984702532,0.049181237477458284,0.04850679292867297,0.047048610853077016,0.04552543300479597,0.04477584798891532,0.04474982731329737,0.04471778768953048,0.04403378397703364
-0.024570158467533753,-0.024570158467533753,-0.024570158467533753,-0.024570158467533753,-0.024570158467533753,-0.024570158467533753,-0.024570158467533753,-0.024570158467533753,-0.024570158467533753,-0.024570158467533753,-0.024570158467533753,-0.024570158467533753,-0.024570158467533753,-0.024570158467533753,-0.024570158467533753,-0.024570158467533753,-0.024570158467533753,-0.024570158467533753,-0.024570158467533753,-0.024570158467533753,-0.024570158467533753,-0.024570158467533753,-0.024570158467533753,-0.024570158467533753,-0.024570158467533753,-0.024570158467533753,-0.024570158467533753,-0.024570158467533753,-0.024570158467533753,-0.024570158467533753,-0.024570158467533753,-0.024570158467533753,-0.024570158467533753,-0.024570158467533753,-0.024570158467533753,-0.024570158467533753,-0.024570158467533753,-0.024570158467533753,-0.024570158467533753,-0.024570158467533753,-0.024570158467533753,-0.024570158467533753,-0.024570158467533753,-0.024570158467533753,-0.024570158467533753,-0.024570158467533753,-0.024570158467533753,-0.024570158467533753,-0.024570158467533753,-0.024570158467533753,-0.024570158467533753,-0.024570158467533753,-0.024570158467533753,-0.024570158467533753,-0.024570158467533753,-0.024570158467533753,-0.024570158467533753,-0.024570158467533753,-0.024570158467533753,0.01815985824590033,-0.0010306513251462429,0.02442079299249623,0.015494278344487652,0.07039309938696645,0.08149155995297437,0.08449666501224257,0.0859534715142064,0.0868504911227862,0.08766250717761732,0.08837485314243347,0.08949176190827339,0.09090712219017696,0.0922811403321091,0.09299708130289511,0.09362925785861784,0.09387838154128524,0.09423286927551597,0.09431884803454776,0.09551384029070127,0.09635750778182793,0.09715819610685875,0.09747958178862441,0.09817863953712279,0.0983172178393383,0.09833696896557152,0.09809053282091636,0.0978751848244954,0.09698095474814816,0.09594884430713194,0.09517343304492779,0.09434526979541784,0.09350705947059755,0.09279370616958185,0.09204711095756325,0.09138827455429226,0.09048625835104256,0.09038223467598806,0.09040300944193708,0.09065844595283873,0.09048012953377081,0.09009925610067089,0.08919686709173803,0.08800219508342445,0.08689818081600663,0.08606455646628934,0.08516935203653293,0.08425575781499822,0.08371990806000246,0.08377259373290538,0.08374339518411156,0.08345033107413255,0.08302209558863584,0.08266580234703493,0.08248478437532969,0.08217671467755563,0.08164355493682834,0.0809142094575779,0.07920648370166465,0.07604324146884812,0.07075937583273725,0.06480032214772537,0.06016777103885639,0.05760274308640652,0.056391109930086704,0.054806533269120335,0.053294442032541425,0.05226485481114047,0.051506084649586586,0.05048282086309917,0.0493206804839553,0.04855689788853276,0.048171317514106346,0.04750055235577046,0.046570636466076745,0.04561884016623833,0.04520522820133407,0.04509769173590775,0.044868607714082805,0.04410044713730907
-0.024570158467533753,-0.024570158467533753,-0.024570158467533753,-0.024570158467533753,-0.024570158467533753,-0.024570158467533753,-0.024570158467533753,-0.024570158467533753,-0.024570158467533753,-0.024570158467533753,-0.024570158467533753,-0.024570158467533753,-0.024570158467533753,-0.024570158467533753,-0.024570158467533753,-0.024570158467533753,-0.024570158467533753,-0.024570158467533753,-0.024570158467533753,-0.024570158467533753,-0.024570158467533753,-0.024570158467533753,-0.024570158467533753,-0.024570158467533753,-0.024570158467533753,-0.024570158467533753,-0.024570158467533753,-0.024570158467533753,-0.024570158467533753,-0.024570158467533753,-0.024570158467533753,-0.024570158467533753,-0.024570158467533753,-0.024570158467533753,-0.024570158467533753,-0.024570158467533753,-0.024570158467533753,-0.024570158467533753,-0.024570158467533753,-0.024570158467533753,-0.024570158467533753,-0.024570158467533753,-0.024570158467533753,-0.024570158467533753,-0.024570158467533753,-0.024570158467533753,-0.024570158467533753,-0.024570158467533753,-0.024570158467533753,-0.024570158467533753,-0.024570158467533753,-0.024570158467533753,-0.024570158467533753,-0.024570158467533753,-0.024570158467533753,-0.024570158467533753,-0.024570158467533753,-0.024570158467533753,-0.024570158467533753,-0.02559884564709198,-0.041005778596044734,-0.01881106139236028,0.011888661523195652,0.05891222163374295,0.06883289010336005,0.07136301441766076,0.0718204716108213,0.07182157721069371,0.07196008140592934,0.07249785370578536,0.07393817085396259,0.07626591123814562,0.07956285454088746,0.0829484047044351,0.08591414357358346,0.08831535065704346,0.09041539898508028,0.09240861562082917,0.09449612356159989,0.09568360008852211,0.09642294452286894,0.09675618958846022,0.09731672581070111,0.09758877200735964,0.09824825857754806,0.09892077300383284,0.09961147564666609,0.09949111159351523,0.0991810263862461,0.09887108694263567,0.09833539350683804,0.09724106252885663,0.0961429284335912,0.09473978158983541,0.09358503482180172,0.0924042751869347,0.09194474688948473,0.09153342369443586,0.09120055048314782,0.09066438767339892,0.09037012040015632,0.08950254950663167,0.08840035462942605,0.08721547316791575,0.08635963995515859,0.08554255097725764,0.08463247166688116,0.08390902078403598,0.08350506864111655,0.0833505795371996,0.08314975619639456,0.08286913610099375,0.08259143763647189,0.08242476669927537,0.08229932694712883,0.08193004555986302,0.08150758573244575,0.0800505697325658,0.07718550790659529,0.07209216423072665,0.06623725219390307,0.061497492465356025,0.05854435906288789,0.056992227873043796,0.055343946101062226,0.05408093253193822,0.053113911074276376,0.05230546587365863,0.05106199146587559,0.04957015652252723,0.04841518780685547,0.047638296213481666,0.04689097952043019,0.046144475883327686,0.04534843735905705,0.04480394921735088,0.04414710752493416,0.04356817778422761,0.042870353551804956
-0.024570158467533753,-0.024570158467533753,-0.024570158467533753,-0.024570158467533753,-0.024570158467533753,-0.024570158467533753,-0.024570158467533753,-0.024570158467533753,-0.024570158467533753,-0.024570158467533753,-0.024570158467533753,-0.024570158467533753,-0.024570158467533753,-0.024570158467533753,-0.024570158467533753,-0.024570158467533753,-0.024570158467533753,-0.024570158467533753,-0.024570158467533753,-0.024570158467533753,-0.024570158467533753,-0.024570158467533753,-0.024570158467533753,-0.024570158467533753,-0.024570158467533753,-0.024570158467533753,-0.024570158467533753,-0.024570158467533753,-0.024570158467533753,-0.024570158467533753,-0.024570158467533753,-0.024570158467533753,-0.024570158467533753,-0.024570158467533753,-0.024570158467533753,-0.024570158467533753,-0.024570158467533753,-0.024570158467533753,-0.024570158467533753,-0.024570158467533753,-0.024570158467533753,-0.024570158467533753,-0.024570158467533753,-0.024570158467533753,-0.024570158467533753,-0.024570158467533753,-0.024570158467533753,-0.024570158467533753,-0.024570158467533753,-0.024570158467533753,-0.024570158467533753,-0.024570158467533753,-0.024570158467533753,-0.024570158467533753,-0.024570158467533753,-0.024570158467533753,-0.024570158467533753,-0.024570158467533753,-0.024570158467533753,-0.02074318755048655,-0.006563641128789252,0.01645853959928705,0.039012161205239156,0.05203652551198152,0.056118779925658266,0.05614298037985312,0.05480813821121456,0.05315696621645341,0.05225868418399938,0.052041464724561684,0.05364444889811353,0.05696352657686682,0.06251486123841056,0.06846361599330557,0.07386169263427483,0.07813355112627693,0.08182875008882975,0.08534343849255403,0.08862611055934595,0.09112939678686136,0.09313578129581655,0.0945493362340384,0.09579771964065106,0.09630783026822845,0.09709699541961445,0.09748405467622348,0.09786451434950087,0.09764586479132288,0.09763412858576696,0.09748541056240373,0.09704865270664746,0.09591483534016736,0.09498329656471713,0.09385718497174768,0.09308039063309241,0.09218024826765245,0.09172147869478024,0.09134614482106693,0.09105333810751132,0.09066322707922178,0.09022189412791441,0.08931251461226769,0.08817014866162828,0.0869846587759476,0.08617026335606309,0.08540913899410188,0.08455611183186493,0.08386136277987861,0.08340818244851315,0.0832395096155373,0.08306039284063216,0.0828889039170061,0.08278276927541107,0.08264966432652524,0.08259260303147084,0.08237073062377408,0.08212305926710248,0.08081721311519248,0.07803943590192973,0.073022889536785,0.06696208460024217,0.06194844840047335,0.05885651959264421,0.057456174776399596,0.05569666309645573,0.05409743657148552,0.05262271190155639,0.051904402741075814,0.05111201476973149,0.0502880926003906,0.049363133369974,0.04874032649411341,0.04808256662786173,0.0473700989203329,0.04638273755888921,0.04540681452139578,0.04421660946255221,0.04332182806269521,0.04247205303562197
-0.024570158467533753,-0.024570158467533753,-0.024570158467533753,-0.024570158467533753,-0.024570158467533753,-0.024570158467533753,-0.024570158467533753,-0.024570158467533753,-0.024570158467533753,-0.024570158467533753,-0.024570158467533753,-0.024570158467533753,-0.024570158467533753,-0.024570158467533753,-0.024570158467533753,-0.024570158467533753,-0.024570158467533753,-0.024570158467533753,-0.024570158467533753,-0.024570158467533753,-0.024570158467533753,-0.024570158467533753,-0.024570158467533753,-0.024570158467533753,-0.024570158467533753,-0.024570158467533753,-0.024570158467533753,-0.024570158467533753,-0.024570158467533753,-0.024570158467533753,-0.024570158467533753,-0.024570158467533753,-0.024570158467533753,-0.024570158467533753,-0.024570158467533753,-0.024570158467533753,-0.024570158467533753,-0.024570158467533753,-0.024570158467533753,-0.024570158467533753,-0.024570158467533753,-0.024570158467533753,-0.024570158467533753,-0.024570158467533753,-0.024570158467533753,-0.024570158467533753,-0.024570158467533753,-0.024570158467533753,-0.024570158467533753,-0.024570158467533753,-0.024570158467533753,-0.024570158467533753,-0.024570158467533753,-0.024570158467533753,-0.024570158467533753,-0.024570158467533753,-0.024570158467533753,-0.024570158467533753,-0.02676669213851185,-0.01814752671517849,0.0018920904133145275,0.027303274205109918,0.043198731588333046,0.04806609576935596,0.0496186207242602,0.048594241312235234,0.04559396457731274,0.04095724425657461,0.03701588121835693,0.03474143930016755,0.035341101876646686,0.03853096319291108,0.044327352177781484,0.05161207642804203,0.05855143884903904,0.0651080859229673,0.0713658671070533,0.07808130836422442,0.08360476675071737,0.0868396487238837,0.08886275456338781,0.09062129839603188,0.09226679383148532,0.09342616080922955,0.09396162441679987,0.09419324498579776,0.0938998820744014,0.09376091906512994,0.09464712842559943,0.09568979247685866,0.09625244209845087,0.09596704455891068,0.09548384598208777,0.0947792049187474,0.09401838207452597,0.09313087475678837,0.09250499966676923,0.09197932659599939,0.0914942721886756,0.0910122777132529,0.09036475365632383,0.0895494434213891,0.08864390905060925,0.0878598387686322,0.08715360020528039,0.08634417089382822,0.08525096492372136,0.08437729711921725,0.08380032096513351,0.08366571494768692,0.08334397097445966,0.08301925971693877,0.08289791431079711,0.08282842117060288,0.08277135889567014,0.08253627366917235,0.08223529931660992,0.08105512493406698,0.07836520872807383,0.0735850597287302,0.06740184281639323,0.06217085218427534,0.05861965660155106,0.056989366817930105,0.05524752576311066,0.0540736898998884,0.05304301193741178,0.05248260959734292,0.05176206400411661,0.05080559471644873,0.049716838997011716,0.04858892805915884,0.04775817133359171,0.04719837130843507,0.04673459896682892,0.045934309145868435,0.04477580783907316,0.04359445796890294,0.042846774551605626
-0.024570158467533753,-0.024570158467533753,-0.024570158467533753,-0.024570158467533753,-0.024570158467533753,-0.024570158467533753,-0.024570158467533753,-0.024570158467533753,-0.024570158467533753,-0.024570158467533753,-0.024570158467533753,-0.024570158467533753,-0.024570158467533753,-0.024570158467533753,-0.024570158467533753,-0.024570158467533753,-0.024570158467533753,-0.024570158467533753,-0.024570158467533753,-0.024570158467533753,-0.024570158467533753,-0.024570158467533753,-0.024570158467533753,-0.024570158467533753,-0.024570158467533753,-0.024570158467533753,-0.024570158467533753,-0.024570158467533753,-0.024570158467533753,-0.024570158467533753,-0.024570158467533753,-0.024570158467533753,-0.024570158467533753,-0.024570158467533753,-0.024570158467533753,-0.024570158467533753,-0.024570158467533753,-0.024570158467533753,-0.024570158467533753,-0.024570158467533753,-0.024570158467533753,-0.024570158467533753,-0.024570158467533753,-0.024570158467533753,-0.024570158467533753,-0.024570158467533753,-0.024570158467533753,-0.024570158467533753,-0.024570158467533753,-0.024570158467533753,-0.024570158467533753,-0.024570158467533753,-0.024570158467533753,-0.024570158467533753,-0.024570158467533753,-0.024570158467533753,-0.024570158467533753,-0.027910227027617224,-0.026493618922562676,-0.010147157597032025,0.014415649124855474,0.036445892780394284,0.04390107418080218,0.046377313938575096,0.04637502162085558,0.04447258823231845,0.041231749122792156,0.03589272742250045,0.030978954691742527,0.02711766189913413,0.026336545298604668,0.028651752926805548,0.033638142515738434,0.04049416492618044,0.04718012743136131,0.05424614789849237,0.06262369445142604,0.07181560970702859,0.08022730921903856,0.08425694005306433,0.08624093854577916,0.08764420900866124,0.08979615126308219,0.09196503364367392,0.09264574072690923,0.09211946211940912,0.09040241593943515,0.08903436396516569,0.08932189375093133,0.0904840048337546,0.09166955415540981,0.09205892642203356,0.09218140853873978,0.09206826299203537,0.09190076210293667,0.09122951915978254,0.09072593787820583,0.09064420774812297,0.09079396070890972,0.09066693030642703,0.09001363661595609,0.0890932880416842,0.08813948016972199,0.08743930478167415,0.08675500541003703,0.08594123401774245,0.08471870731352936,0.08414684246938732,0.08420799378513033,0.08441712454148773,0.08418531821276515,0.08365428632966826,0.08343224115098229,0.083310600316077,0.08316936044018533,0.08296346485808166,0.08270322669826474,0.08180790758233482,0.07959702113593843,0.07556491241974259,0.06978677166083819,0.06471639356643255,0.06066404346282756,0.058605153606498026,0.056469470458125025,0.055305192950585065,0.054350789449599486,0.053876490296185305,0.053244513196807175,0.05242320802918355,0.05150998850846407,0.05038491105064198,0.04939538231603011,0.04849476346079398,0.04805333526990865,0.04753752432553324,0.046253170265043275,0.04474606871634507,0.04349608700593841
-0.024570158467533753,-0.024570158467533753,-0.024570158467533753,-0.024570158467533753,-0.024570158467533753,-0.024570158467533753,-0.024570158467533753,-0.024570158467533753,-0.024570158467533753,-0.024570158467533753,-0.024570158467533753,-0.024570158467533753,-0.024570158467533753,-0.024570158467533753,-0.024570158467533753,-0.024570158467533753,-0.024570158467533753,-0.024570158467533753,-0.024570158467533753,-0.024570158467533753,-0.024570158467533753,-0.024570158467533753,-0.024570158467533753,-0.024570158467533753,-0.024570158467533753,-0.024570158467533753,-0.024570158467533753,-0.024570158467533753,-0.024570158467533753,-0.024570158467533753,-0.024570158467533753,-0.024570158467533753,-0.024570158467533753,-0.024570158467533753,-0.024570158467533753,-0.024570158467533753,-0.024570158467533753,-0.024570158467533753,-0.024570158467533753,-0.024570158467533753,-0.024570158467533753,-0.024570158467533753,-0.024570158467533753,-0.024570158467533753,-0.024570158467533753,-0.024570158467533753,-0.024570158467533753,-0.024570158467533753,-0.024570158467533753,-0.024570158467533753,-0.024570158467533753,-0.024570158467533753,-0.024570158467533753,-0.024570158467533753,-0.024570158467533753,-0.024570158467533753,-0.024570158467533753,-0.02918633346782778,-0.022415774193651254,-0.0035452042420384394,0.02310596910149887,0.03967148972533645,0.044101964567256534,0.045241455594399384,0.04450182931746976,0.04264117411023718,0.039119973250864,0.034115771590951534,0.029062396712769126,0.025786266371559577,0.026074568592754248,0.02985196221150535,0.036150499639805385,0.04380790292752873,0.05114524719811823,0.058656651552627295,0.06731639328635619,0.07621681063834448,0.08362000119085619,0.08571350014927498,0.08559893249382516,0.08551236982102398,0.08728736456742159,0.09038165406488338,0.09225376336402141,0.09243384817271824,0.09041156450892511,0.08823668485249049,0.08808754277430168,0.08940726152299398,0.09129890969848897,0.09224217579128652,0.0923443360779557,0.09179633965040204,0.09110738303101236,0.09037511424997238,0.09003299977517254,0.09015340130114922,0.09043155060822276,0.09064253805205774,0.09046759417041116,0.08998877888360338,0.08920872996893708,0.08851307767603764,0.08772350231892809,0.08679494811449989,0.08547955704683946,0.08477297506119842,0.08468179770450451,0.08486329433014875,0.08463647045140947,0.08403145764664159,0.0835231677375905,0.08316350806362931,0.08289175478788144,0.08264099871018199,0.08243618340743686,0.08181517639592564,0.08007247526557137,0.07633079154020303,0.07061172321420822,0.06525494339551784,0.06106454050187847,0.058742439086695436,0.0569238552651486,0.05589424383125458,0.0548808493814462,0.05382325555411112,0.052705972837560386,0.05171775540965528,0.05089245583250123,0.049595072623689916,0.048541214019648185,0.04764731968666317,0.047732494586448196,0.04768431318589077,0.04706533087474045,0.0458594052687301,0.044941212133726274
